# .PCD v0.7 - Point Cloud Data file format
VERSION 0.7
FIELDS x y z intensity
SIZE 4 4 4 4
TYPE F F F F
COUNT 1 1 1 1
WIDTH 1396
HEIGHT 1
VIEWPOINT 0 0 0 1 0 0 0
POINTS 1396
DATA ascii
-70.591057 1.7401799 -0.32087326 8
-71.058243 1.8936143 -0.35459948 8
-70.691452 1.8408713 -0.23630571 8
-71.06237 2.3565147 -0.35402998 9
-70.882874 2.2985225 -0.2943697 9
-70.69651 2.3060358 -0.31621298 8.666667
-70.419342 2.3320813 -0.20802021 9
-71.081863 2.5210652 -0.26417923 9
-70.712639 2.4374661 -0.25514698 9
-71.064476 2.9590545 -0.29902077 10
-70.894814 2.9021597 -0.28948021 10
-70.672752 2.9289455 -0.36037254 9.5
30.223488 2.8232203 -0.33479524 10
-71.049187 3.1077724 -0.21074009 10
-70.782875 3.0131261 -0.33443832 10
-70.474754 3.1025276 -0.22713089 10
-70.649353 3.3716068 -0.22418499 9
-71.083267 3.5166161 -0.395679 11
-70.937241 3.5382216 -0.30236483 11
-70.737244 3.4984732 -0.36908627 11
-70.965912 3.6995556 -0.25405216 11
-70.667305 3.6625333 -0.31185532 10
-70.525543 3.6090233 -0.22426987 10
-70.458321 3.8892105 -0.27786446 11
29.879255 3.9146988 -0.29548907 11
-71.012253 4.0731711 -0.3488245 12
-70.890732 4.1373229 -0.33112192 12
-71.084175 4.2869396 -0.28261757 12
-70.99852 4.4255228 -0.32290363 12
-101.00153 4.6238222 -0.25191879 12
-71.05619 4.6558619 -0.37592411 13
-108.09633 4.9066725 -0.38109922 12.5
-7.0331726 5.0914445 -0.31187439 14
-107.94152 5.3637772 -0.33919621 13
-71.05439 5.2279968 -0.29416561 14
-107.14258 5.4615808 -0.24051857 13
-107.85752 5.8512115 -0.39271641 13
-71.21434 5.8061337 -0.24727917 15
-107.93208 6.1377859 -0.30338478 13
4.315124 -1.4749711 -0.16736031 4
-70.880669 0.68984109 -0.10231622 6
-70.159332 0.75444174 -0.17481613 7
-70.631966 1.1127779 -0.14638519 7
-70.701469 1.2829551 -0.14960639 7
-70.506302 1.2706698 -0.027233124 8
-70.426651 1.5306206 -0.1325798 8
-70.790672 1.935369 -0.18701553 8
-70.507874 2.4949949 -0.16191006 8
-22.747799 2.5543396 -0.01186657 11
-70.536026 3.1746454 -0.16850281 10
-23.113205 3.208446 -0.064212799 12
-22.676979 3.2183144 -0.016998291 12
-70.917122 3.5077412 -0.058835983 9
-22.127985 3.7584262 -0.16161633 13
-97.233475 4.2367973 -0.045128822 11
-100.96684 4.5269094 -0.090006828 12
-104.90695 5.0449014 -0.079464912 12
-104.68854 5.5966139 -0.095534325 13
-104.98752 5.9950037 -0.0007506609 11
-104.92307 6.1588712 -0.10679245 13
-104.79198 6.0393047 -0.031254768 14
-103.48131 8.3714809 -0.094704747 14
-22.691986 0.70520741 0.030603409 8
-93.721298 1.3947662 0.17952633 6
-22.752319 1.3300607 0.036349297 9
-22.727871 1.4009643 0.019216537 9
-23.06974 3.1685443 0.13221741 12
-23.016968 3.219321 0.10471153 12
-93.596191 3.8552423 0.17713261 10
-104.55632 4.3498273 0.14073372 10
-21.903742 4.3170743 0.1841011 14
-104.75219 4.4072576 0.028879166 11
-22.913589 4.5191917 0.16270828 14
-105.01521 4.6628447 0.02794826 9
-104.84306 4.792232 0.13016033 12
-100.79306 4.6104555 0.1101284 12
-96.90226 4.7534361 0.098152161 12
-100.66846 4.8596344 0.16467762 11
-22.034294 4.9929461 0.071861267 15
-104.89899 5.1829119 0.13139725 13
-104.79483 5.379498 0.070473194 11
-100.64037 5.3994412 0.12231445 12
-101.55914 5.6932001 0.11128712 13
-104.90483 5.8058548 0.17133427 11
-104.76973 5.9876766 0.032405853 12
-96.85479 5.8753214 0.16519165 15
-104.97124 6.2045689 0.15462112 15
-101.58654 6.3175392 0.022870064 14
-104.92899 6.4591904 0.16780186 15
-102.22384 7.0489655 0.14597797 15
3.1253991 -1.8137671 0.26938772 1
-93.747711 1.2991575 0.25142097 5
-93.714104 1.4384937 0.26971531 5
-93.810226 1.6352865 0.32232761 6
-93.754959 1.7229106 0.26819944 6.5
-93.832253 2.0916946 0.341362 7
-93.796875 2.1725152 0.34068203 7
-93.719398 2.3438938 0.31404814 7.6666665
-93.734894 2.505022 0.34947252 8
-93.724571 2.9111202 0.35959563 8.333333
-93.714851 3.10006 0.38570023 9
-22.469278 3.2712386 0.24569893 12
-93.640884 3.5117836 0.32185078 9.5
-22.855831 3.8401101 0.24624443 13
-104.33177 4.2776475 0.27507687 11
-97.636703 4.3396482 0.38917828 12
-97.221413 4.3393703 0.3988409 12
-93.719864 4.3241167 0.38177967 11
-104.6142 4.4904127 0.22408056 9
-104.84013 4.7883921 0.21001244 13
-96.906639 4.911561 0.39639568 13
-104.81581 5.1296649 0.24691105 10
-104.58839 5.0108113 0.25350761 13
-101.46573 5.0696287 0.27232742 12
-22.972404 5.0767574 0.31835938 15
-103.29823 5.2954779 0.36257648 12
-96.872963 5.3829045 0.3028965 14
-96.747375 5.2615499 0.37560844 13
-104.85126 5.7876053 0.22210217 14
-104.68948 5.6432409 0.34483194 12
-100.73981 5.6073141 0.37280273 14
-104.94112 5.8701229 0.2324872 11
-100.94186 5.8893871 0.29835701 13
-100.79016 5.9821987 0.30376863 12
-96.824059 5.8426266 0.20440578 14
-104.56676 6.2941632 0.34148788 14
3.1512856 -1.7809519 0.48628521 1
-93.796524 1.1226132 0.40145397 5
-65.977631 1.9951699 0.56923771 8
-66.00087 2.1831193 0.53540993 8
-65.949615 2.2772529 0.49690866 9
-93.744995 2.4059713 0.43094444 7
-93.762253 2.6808653 0.40249825 8
-93.80603 2.9942863 0.40519238 9
29.530479 2.9001803 0.49785757 10
-93.709831 3.0642757 0.45264912 8.333333
-93.690208 3.3325272 0.44354677 9
-93.703278 3.5137331 0.4481357 10
29.967325 3.425298 0.58504772 10
-93.700233 3.7035308 0.51759481 9.5
-22.301287 3.7468853 0.52496719 13
-93.677887 3.8843231 0.49033675 11
-22.499811 3.8439584 0.41687679 13
-103.58835 4.0653572 0.49882126 11
-93.634117 4.0146422 0.50909615 11
-93.668121 4.2995553 0.51083469 11.5
-104.47953 4.5459027 0.53512621 11
-100.48113 4.5996318 0.43957138 12
-93.616219 4.4295874 0.56628609 12
-22.249926 4.4530272 0.50450516 14
-100.84378 4.7519789 0.58545589 13
-97.278214 4.7387357 0.54943752 12.5
-93.653618 4.6079912 0.58573532 12
-102.25212 4.8926644 0.55156136 13
-102.02795 5.1187325 0.51630306 14
-100.79099 5.161375 0.51235962 13
-22.115034 5.078855 0.58509827 15
-102.27539 5.3072596 0.55209637 14
-100.59335 5.2479811 0.48962212 14
-102.01707 5.5015244 0.44765568 15
-104.40468 5.8192549 0.59424067 13
-100.82812 6.0138855 0.46803188 15
-100.41814 6.2029061 0.55644846 13
-65.365799 0.61021316 0.78835869 7
-66.063675 1.0705345 0.77957344 7
-65.343452 1.3707569 0.69819641 8
-65.977432 1.7314119 0.72367382 8
-65.998024 1.8312249 0.66592884 8
-65.114883 2.1465895 0.76915884 9
29.464159 2.1454637 0.7173481 9
-65.893555 2.2087922 0.61691093 9
-65.757942 2.3645575 0.6948204 9
-146.00879 2.5911016 0.60292292 5
-65.731247 2.6614408 0.71374512 9
-65.735191 3.1092629 0.77671814 9
-65.726883 3.4097972 0.75620365 10
-65.565231 3.5005679 0.7860136 11
-103.63351 4.1714373 0.667377 10
-103.83975 4.2851162 0.66799021 10.5
-103.94642 4.5980849 0.74364281 12
-100.12357 4.4980574 0.70001793 12
-104.12409 4.71979 0.74780464 11
-101.93764 4.7364225 0.64743137 13
-100.86766 4.7289629 0.62087536 12
-100.40788 4.6196289 0.67015314 10
-97.05468 4.78792 0.72265244 13
-93.630386 4.7304473 0.65329933 13
-104.54887 4.9543438 0.63733673 12
-104.14859 4.8317022 0.68868065 12.5
-103.86668 4.9248781 0.75259209 12
-100.82331 4.9617867 0.60315514 13
-104.59351 5.1543999 0.73550129 10
-104.20346 5.18185 0.74186325 14
-102.2991 5.1465755 0.77742481 14
-100.68188 5.0297427 0.74419212 11
-100.28386 5.1014638 0.77541637 12
-97.53289 5.0844893 0.63280487 14
-104.52403 5.3459854 0.66841459 12.5
-104.20137 5.2193513 0.61442375 13
-100.51561 5.2835093 0.7457304 14
-100.17715 5.2091999 0.7878952 13
-104.51691 5.4077096 0.73069525 10
-102.24729 5.5185022 0.7944479 15
-100.88771 5.4662089 0.69116306 15
-99.6521 5.5082397 0.75242424 15
-93.679146 5.5173779 0.74365997 15
-104.58662 5.784833 0.69354057 14
-100.55955 5.6640053 0.64397049 14
-100.23524 5.707696 0.77357006 13
-100.05125 5.6742177 0.68089771 15
-104.76302 5.8307133 0.65171909 11
-102.90432 5.853189 0.68528366 13
-100.54987 5.8174133 0.67048264 12
-104.55598 6.0287542 0.66614246 14
-100.45504 6.0381107 0.7231884 15
-99.622574 6.142767 0.77290726 12
-100.36386 6.3220539 0.62392664 14.5
-99.821297 7.1885996 0.62935257 14
3.1494055 -2.023912 0.87583971 0
-14.008423 -1.2189919 0.99931568 5
-13.887202 -1.2577127 0.92880708 4
-13.771057 -1.3413358 0.96092391 4
-13.858727 -1.1414355 0.93294853 4.25
-13.882545 -0.91805696 0.94404644 5
-13.791204 -0.81509924 0.91999531 5
-13.867143 -0.7219137 0.98697323 6
-13.750407 -0.75979549 0.94973993 5
-13.739284 -0.49629474 0.92031574 6
-13.679729 -0.38799939 0.97429466 6
-13.600368 -0.056149758 0.93695724 7
-13.537652 0.020749062 0.92495012 7
-13.493537 0.37020248 0.93596244 8
-65.725563 0.5911119 0.81487179 6
-13.44278 0.42068556 0.90782118 8
-13.383078 0.5271818 0.9753437 8
-65.799133 0.62134528 0.89145088 6
-13.379961 0.70622844 0.94830155 8.5
-65.458885 0.98163629 0.81263351 8
-14.579006 0.8742187 0.86887383 9
-13.448133 0.80014586 0.88571924 9
-13.348022 0.81882161 0.9445135 8.666667
-66.039627 1.1209689 0.82680416 7
-65.726089 1.1183466 0.82200098 7
-13.297508 1.1991024 0.9396553 10
-65.787155 1.2034529 0.8599062 7
-65.490433 1.3089427 0.87134457 8
-14.679527 1.3245183 0.92900777 10
-14.537405 1.2507578 0.89875603 9
-13.299149 1.2260852 0.94992191 10
-65.27594 1.4873335 0.83260536 8
-14.627651 1.4116454 0.91478157 10
-65.692451 1.6883268 0.83200902 8
-14.909075 1.7984294 0.9636116 11
-13.249012 1.6370701 0.94477296 11
-65.750916 2.0132971 0.92462444 8
-65.402657 2.0954335 0.90076256 9
-65.257233 2.1373672 0.90776825 9
-13.250009 2.0375333 0.9424473 12
-65.625389 2.2511926 0.91335487 9
-65.574936 2.2084723 0.8680172 9
-65.342545 2.2947927 0.95368576 9
-143.73242 2.5170479 0.97596264 5
-65.634041 2.9514914 0.82234573 10
-65.293793 2.9187973 0.83877945 10
-65.187813 2.8929262 0.80879593 10
-64.940796 2.8087835 0.82448578 10
-13.403721 2.9568069 0.97504997 14
-13.361773 3.3020718 0.99507427 15
-65.600304 3.7943671 0.8574419 10
-65.218979 3.7433662 0.86183167 11
-65.14357 3.6518316 0.80591202 11
-116.60353 3.9768569 0.98608685 9
-116.55462 3.976217 0.96086287 8
-65.657608 3.9631977 0.88453579 10
-116.6562 4.0391769 0.96985936 10
-116.56028 4.1253853 0.9761402 9
-99.88414 4.1289268 0.82995152 10
-116.67602 4.276948 0.97520906 11.333333
-116.55853 4.3259587 0.9669838 9.8000002
-99.883575 4.2286386 0.86498737 11
-99.730087 4.3676758 0.88235283 11.5
-116.61022 4.4842548 0.92875957 12
-116.56457 4.5036035 0.93490601 11
-100.46024 4.584291 0.81622028 12
-116.67916 4.7981663 0.96783257 14
-116.53342 4.7036023 0.95996594 10.5
-103.65328 4.6053081 0.83217621 11
-100.29256 4.7659607 0.88621998 12
-100.19237 4.7042923 0.89603806 12
-99.92836 4.6186004 0.91586208 12
-116.67139 4.972136 0.98229265 14
-116.56564 4.8975034 0.94546509 12.333333
-100.54984 4.9597673 0.87153149 13
-100.12778 4.8473005 0.89467478 11.5
-97.554619 4.9000497 0.99289417 13
-116.67058 5.0007839 0.97807217 15
-116.55375 5.0992455 0.94293785 13.2
-104.047 5.1515889 0.84211206 13
-103.84666 5.0173483 0.91454744 12
-100.2224 5.1980724 0.85383797 13
-99.517273 5.0565939 0.9318428 13
-99.325317 5.0974793 0.89097595 13
-97.146309 5.1460738 0.88514233 14
-116.53344 5.2581058 0.95066381 12.833333
-104.72827 5.3726797 0.86854541 10
-100.69101 5.2705879 0.82006741 13
-100.57622 5.275044 0.89450121 12.5
-100.26764 5.2219048 0.83191586 14
-116.52621 5.4758453 0.94754201 14.333333
-104.35596 5.5916615 0.96686697 13
-103.89045 5.4422398 0.93092966 13
-99.910637 5.4357481 0.8780539 12.5
-97.297821 5.4289885 0.97477055 15
-116.53247 5.7457356 0.93427563 14.666667
-100.20946 5.7087951 0.86250973 14
-104.41635 5.9512992 0.9359026 15
-104.01887 5.8572569 0.91117287 14
-95.196144 5.9486828 0.96679306 15
-99.288193 6.3646164 0.93393469 12
-97.973129 6.2252302 0.95708847 14
-102.71298 6.4294987 0.89003849 14
-99.42112 6.4024315 0.96299553 15
-95.214813 6.4292755 0.99204159 14
-99.814835 6.7899294 0.93712473 13
-99.495743 6.9528155 0.84575653 14
-99.115204 7.1231241 0.99320745 13
-95.204849 7.0109043 0.89640236 15
-15.319798 -0.79716277 1.1327267 5
-13.736641 -0.35553101 1.0219965 6
-13.528293 0.38784474 1.0068216 8
-14.687576 0.44889092 1.1678851 8
-14.580536 0.5138495 1.1485882 8
-13.522214 0.48556149 1.0489688 8
-13.380825 0.58566332 1.0030022 8
-14.533566 0.73514986 1.0897512 8
-14.909855 0.88530391 1.1712711 9
-14.724396 0.93703192 1.0491624 9
-13.428036 0.84688699 1.0626241 8.75
-13.320363 0.89650184 1.0469643 8.5
-13.28901 1.0822166 1.0617374 9
29.79986 1.0961746 1.0019684 8
-14.73435 1.3159188 1.1194148 10
-13.294138 1.3020779 1.0677925 9.6000004
-65.452438 1.4222555 1.0012436 7
-14.880054 1.4110674 1.1583004 10
-14.706194 1.4018633 1.0335674 10
-13.251294 1.4889781 1.0874774 9.7142859
-14.884406 1.7900827 1.1281233 11
-14.778709 1.7514282 1.1620045 10
-13.253835 1.6800483 1.0771941 10.666667
-13.258673 1.9063138 1.0890005 11
-13.190045 1.9971278 1.0338712 12
-13.295893 2.0898249 1.1007832 11.4
-65.705147 2.3150396 1.0079212 9
-13.400837 2.3470819 1.1866322 12
-13.319914 2.2658689 1.1247697 11.5
-13.441349 2.5879838 1.0507305 13
-13.377778 2.4856756 1.1284394 12.5
-65.710938 2.7701058 1.1746759 10
-13.444198 2.7131226 1.0708151 12.5
-13.36675 2.6868701 1.1246376 11
-88.293762 2.8620722 1.1695738 8.666667
-65.679993 2.8092146 1.1781511 10
-65.239288 2.9302306 1.1097565 10
-13.416217 2.8109691 1.1022935 14
-13.364075 2.8819358 1.1290165 13.2
-88.318275 3.1696453 1.1776867 9
-13.414303 3.1020191 1.0689249 14
-13.367689 3.0703111 1.119845 13.4
-88.289711 3.3093324 1.1643703 9.6000004
-13.410728 3.2744429 1.1463779 13.333333
-13.372527 3.2770839 1.0968015 14.75
-13.429973 3.4546018 1.0579785 15
-13.389384 3.5448837 1.1112374 14.4
-88.279663 3.691674 1.1585697 10.666667
-13.327993 3.6692519 1.1390305 13
-99.409576 3.9704347 1.0794792 9.5
-99.326065 3.9473643 1.0954452 11
-88.279747 3.8690109 1.1505756 11
-13.424826 3.8330817 1.1681309 14
-116.49533 4.1155782 1.0787323 9.333333
-99.482162 4.0908923 1.0946629 10
-99.387291 4.1372442 1.102911 11
-98.447662 4.1855936 1.125514 11
-88.327354 4.1151638 1.1908035 11.5
-13.371148 4.1066303 1.1059322 15
-116.62264 4.2770433 1.038384 11
-116.45552 4.267601 1.1345857 9.25
-116.37224 4.3586473 1.1104527 10
-99.498138 4.3476534 1.0436316 12
-99.174072 4.2669764 1.0348082 11
-88.280144 4.2166662 1.0535011 12
-13.431534 4.3143377 1.1188555 14.5
-116.68623 4.5308828 1.0360575 12.5
-116.50181 4.5412464 1.0908215 10.5
-116.39768 4.4887934 1.118433 10.5
-99.469139 4.5111623 1.0172987 12
-99.169327 4.5878525 1.103363 12
-116.65057 4.7035475 1.0209748 13
-116.52881 4.66366 1.0931923 10.5
-99.637901 4.6344748 1.0412054 12
-99.287094 4.6949897 1.158802 13
-116.50434 4.9012904 1.0586455 11.857142
-116.3901 4.8930197 1.1198483 11
-99.563889 4.8505793 1.0812569 12.5
-97.677841 4.956161 1.1256275 12
-97.401375 4.8501301 1.1584721 13
-116.43211 5.0689821 1.1091098 12
-99.331093 5.0238757 1.1373158 14
-95.297768 5.0396285 1.1918764 13
-116.67517 5.2167349 1.0305271 15
-116.43661 5.359601 1.1456289 12.5
-116.39719 5.2262597 1.0993525 12
-99.41275 5.3112402 1.0748434 13
-116.48224 5.4898243 1.0881487 12.333333
-116.37411 5.481144 1.0929438 13
-99.345108 5.5601125 1.0744276 14
-98.989197 5.5042915 1.1356716 14
-97.26474 5.4430423 1.0602632 15
-95.302299 5.483429 1.0535116 14
-116.46342 5.7425423 1.120894 13.333333
-116.37161 5.6788349 1.0615711 13
-99.330757 5.8248725 1.1321983 14
-95.400375 5.814477 1.1221032 12
-99.200806 7.0013828 1.1611629 14
-95.319824 7.1339836 1.0224752 14
-15.292328 -1.2526531 1.2183619 4
-15.729122 -0.33856088 1.2868109 6
-14.586954 0.54138702 1.2028494 8
-14.977897 0.88792926 1.3283529 9
-88.451317 1.1056715 1.2921257 5
-88.488297 1.2966712 1.33744 5.5
-15.095687 1.3200392 1.2606845 10
-14.981008 1.3440948 1.3512777 10
-88.479797 1.542315 1.2903938 6
-15.079973 1.7665802 1.3423982 11
-88.470688 1.9728582 1.2551641 7
-88.423882 2.0963898 1.2892189 7
-34.848476 2.0744386 1.3079262 10
-88.455437 2.2031999 1.2192354 7
-88.34182 2.328418 1.2191359 8
-88.352509 2.4503551 1.2171741 8
29.421949 2.4492326 1.3708057 9
-137.62321 2.6546485 1.3605566 4
-88.321426 2.6718273 1.228322 8
-88.321091 2.8946471 1.2262015 8.5
-65.275856 2.8145952 1.2340069 10
-13.539021 2.9265232 1.2873974 10
-137.54913 3.16436 1.3512239 5
-136.15836 3.119776 1.2181849 5
-135.63992 3.1597776 1.3153067 5
-88.354721 3.118952 1.2234612 8
-65.607635 3.3178446 1.3421192 11
-136.15001 3.5408883 1.2440038 6
-65.123711 3.4550474 1.3711414 11
-137.57838 3.6637502 1.285471 6
-116.47719 3.9869399 1.376976 9
-88.317749 3.9771581 1.2008209 10
-90.226624 4.1831079 1.2663832 12
-90.129936 4.1627698 1.3557014 11
-88.32901 4.133697 1.2481565 11
-116.50289 4.3382788 1.3162549 11
-99.040695 4.3679867 1.3289919 12
-116.47478 4.5959024 1.2439034 10
-88.380058 4.5537143 1.3622799 12
-116.44614 4.6092196 1.3231468 10
-99.584915 4.681107 1.2241864 13
-90.152771 4.6444659 1.3915968 12.5
-116.75841 4.9453568 1.322818 15
-99.614006 5.0474486 1.2185431 12
-99.552856 5.0398183 1.2857885 13.5
-99.26075 5.0828137 1.3491879 14
-97.793869 5.0029354 1.2988644 12
-95.376869 5.1769543 1.2782688 11
-116.48782 5.3997045 1.3882704 15
-97.470787 5.2651243 1.2278042 14
-98.039352 5.480629 1.2970929 12
-97.877724 5.5772581 1.2001467 13
-97.432434 5.6178904 1.201889 15
-95.034653 6.0880671 1.3710437 12
-98.55146 6.5081339 1.3505015 14
-95.163818 6.76899 1.3131366 13
-94.872993 6.9729037 1.2898898 12
-94.788834 7.8680878 1.3117929 13
-14.686116 0.41796905 1.4440167 8
-14.838972 0.88881326 1.4679885 9
-34.696804 1.3936259 1.506773 9
-27.95233 1.3558718 1.5712605 9
-15.033608 1.32629 1.4785357 10
-14.998859 1.3129226 1.4580956 10
-116.73871 1.7489995 1.5822572 1
-14.99786 1.7801723 1.4006615 11
-23.007513 1.8721794 1.4560137 10
-116.73817 2.1016059 1.5775228 1.5
-116.80871 2.3468525 1.5955038 1
-116.72048 2.3326063 1.5760475 2
-116.7451 2.450238 1.5788091 2.5
-22.861713 2.4669471 1.568222 11
-134.34137 2.6337843 1.5666426 4
-133.89723 2.7163706 1.5456147 4
-116.70166 2.7118461 1.5744572 4
-34.808563 2.7410026 1.5437756 11
-27.854618 2.6302857 1.5874863 11
-135.27422 2.8193574 1.4654257 4
-116.73835 2.9394629 1.5585288 4.3333335
-134.36276 3.00071 1.479534 5
-133.96608 3.085341 1.5151396 5
-116.67899 3.0955842 1.555918 5
-135.18353 3.213387 1.4302459 5
-134.2769 3.3751404 1.5349673 6
-116.70236 3.2703598 1.5668907 6
-135.66383 3.5596919 1.4372916 6
-135.28981 3.5950258 1.4866881 6
-116.83351 3.4724743 1.5804665 7
-116.71265 3.4908307 1.5666672 6.6666665
-137.09082 3.656719 1.5751414 6
-116.71194 3.7160065 1.5549186 7.8333335
-116.82098 3.8275979 1.5882204 9
-116.68864 3.9175823 1.5293845 8.25
-137.7713 4.1738157 1.4993258 7
-116.71854 4.1674242 1.5880759 11
-116.53773 4.1873283 1.4674826 10
-116.7436 4.2765994 1.5040022 11
-90.141624 4.262332 1.4209309 12
-116.78967 4.4994011 1.4634614 13
-116.51639 4.5665417 1.4016788 10.5
-116.8157 4.7275882 1.5249083 14
-116.72952 4.6652622 1.5454245 13.333333
-116.47729 4.7142706 1.4058704 10
-116.7326 4.8907194 1.524361 14
-116.50725 4.8302317 1.4740019 12.5
-116.68202 5.0981555 1.5663601 14.5
-116.50925 5.1050014 1.4532014 13
-99.101562 5.0495777 1.492631 14
-116.68433 5.2402515 1.5671237 15
-116.50621 5.3252578 1.462141 14
-116.4722 5.4928112 1.4601259 13
-116.63812 5.6991925 1.5363958 14
-116.49983 5.6725907 1.5007772 13
-94.612656 5.6450148 1.5438733 12
-116.581 5.9754744 1.4838834 14
-116.61876 6.0412245 1.5459664 14
-116.60854 6.3205671 1.5325818 15
-116.60694 6.4118052 1.535078 14
-116.58649 6.5679646 1.5178814 15
-116.59759 6.8047924 1.5259418 15
-94.894241 6.8295069 1.5618215 14
-116.32874 7.0157413 1.5770636 15
-116.39835 7.2085094 1.5767813 13
-116.35788 7.6402311 1.5656834 14
3.9142833 -2.061723 1.6185212 0
4.0869079 -1.7722036 1.6800952 1
-14.958593 -0.2834785 1.752039 6
-61.321503 0.48348308 1.7861471 6
-14.785572 0.57048935 1.6121149 8
-14.913439 0.91742283 1.6107001 9
-116.70093 1.5871117 1.7178757 0
30.128523 1.5482262 1.7781447 9
-116.83232 1.7000051 1.762538 0
-116.73559 1.9267744 1.654911 1
-116.58146 1.87164 1.7233074 1
-116.7327 2.1227703 1.6725428 1
-116.57115 2.1663747 1.7446609 3
-31.072802 2.1158562 1.7718906 10
-116.88194 2.3942292 1.6416607 1
-116.76284 2.3333707 1.6907558 1.75
-116.54811 2.2340531 1.784924 4
-116.87438 2.5169303 1.6493033 1.6666666
-116.78547 2.54915 1.6372399 3
-116.5364 2.5780129 1.7491016 6
-22.381102 2.5031211 1.6109953 11
-146.19882 2.6378591 1.6922698 5
-137.04082 2.7069752 1.7018766 4
-116.77962 2.754724 1.6437235 4
-116.53812 2.7058129 1.7494617 5
-31.06356 2.7683039 1.766716 11
30.628227 2.6632419 1.779986 10
-133.37244 2.9948685 1.6789167 5
-132.96928 2.8770816 1.6972754 5
-116.83832 2.8835933 1.6459991 4
-116.77617 2.8436332 1.6231608 5
-116.52959 2.907521 1.7442923 6
-137.09882 3.1808741 1.6040416 5
-136.56848 3.1412053 1.6731539 5
-136.15736 3.1193149 1.7280054 5
-135.68018 3.1574731 1.6270871 5
-134.71429 3.1197019 1.6663706 5
-134.31682 3.0108936 1.7728423 5
-116.83218 3.10798 1.6672369 5
-116.75559 3.1123416 1.6125065 5.6666665
-116.49597 3.104651 1.7494824 7
-22.305883 3.0537972 1.7912436 12
-135.26154 3.209851 1.6915338 5
-133.38626 3.3826735 1.7240875 6
-132.93494 3.2882659 1.7149518 6
-116.848 3.2754631 1.6808974 6
-116.74438 3.3287709 1.6457115 6.3333335
-116.49007 3.3281705 1.7432935 7.75
-136.57227 3.5913391 1.6549387 6
-136.09842 3.5483146 1.6843028 6
-135.58914 3.566386 1.7945828 6
-133.87926 3.4700246 1.6016459 6
-116.86951 3.4373178 1.7047496 7
-116.75822 3.5256152 1.6500092 7.5
-116.525 3.4311757 1.7380359 8
-137.72345 3.6695147 1.7340832 6
-134.40608 3.7451465 1.7526578 7
-116.84181 3.6951747 1.7221167 8.5
-116.74613 3.7216191 1.6675334 8
-116.48574 3.7548106 1.7429332 9
-136.18925 3.9731891 1.7098808 7
-116.81832 3.9630606 1.6210241 10
-116.73454 3.9555335 1.62043 10
-116.48346 3.8858576 1.7408094 9
-116.70517 4.1141915 1.7426358 8.75
-116.47318 4.058187 1.7306494 10
-116.68388 4.2913027 1.678856 9.75
-116.48182 4.2735252 1.7240586 11
-89.874359 4.3930831 1.6191072 11
-25.383259 4.2930908 1.6191101 12
-116.88448 4.4121466 1.7939463 12
-116.70284 4.49473 1.6670038 11.166667
-116.49693 4.5137959 1.7140207 9
-116.70485 4.7077584 1.6852468 12.142858
-116.45397 4.6660728 1.7160215 12
-116.86871 4.8596663 1.7839012 14
-116.67405 4.9208302 1.6819744 12.571428
-116.44967 4.961956 1.7283096 11.5
-116.85879 5.0864019 1.7836866 15
-116.66702 5.1332545 1.7393682 11.5
-116.65495 5.281095 1.7341303 12
-116.40987 5.3952436 1.654356 13
-116.65125 5.4820437 1.7002411 13.6
-116.63248 5.7097273 1.7065142 13
-116.43993 5.6052403 1.7147415 13
-116.61265 5.844347 1.6058521 13
-116.41647 5.8090978 1.6653328 14
-116.39046 5.9016905 1.6922128 13.5
-116.50452 6.1159172 1.7649117 10
-116.38606 6.1390305 1.666604 13
-116.35573 6.5814552 1.6773252 13
-116.49498 6.6592975 1.6927152 14
-116.39459 6.671999 1.6481915 12
-116.49416 6.8070846 1.6726122 14
-116.36356 6.8885026 1.6861639 13.5
-116.47149 7.0744905 1.637239 15
-116.5041 7.2431564 1.6405344 15
-94.691544 7.2384529 1.6368465 14
-116.42197 7.4146986 1.6611481 11
-61.212982 0.55232346 1.9729605 6
-60.825054 0.48847079 1.9726038 6
-60.796707 0.52490401 1.9701815 6
-60.499863 0.55181205 1.9505043 7
-60.480492 0.64133537 1.9594154 7
-24.236771 0.6606037 1.9869852 8
-14.891855 0.62177026 1.8930016 8
-60.760437 0.91847396 1.9597454 7
-60.415501 0.91695607 1.9869862 7
-61.15807 1.1005129 1.8802284 7
-60.826778 1.0876422 1.9938521 7
-15.616126 1.0730911 1.9569569 9
-60.471169 1.2771919 1.9630194 8
-24.098 1.2995722 1.9862642 9
-116.86741 1.7391323 1.8670353 0.66666669
-61.080807 1.6233487 1.8923259 8
-15.797757 1.7025766 1.9466248 10
-116.84796 1.9406608 1.8883727 1.5
-116.65771 1.8828431 1.9196082 0.66666669
-23.123955 1.8355019 1.8949165 10
-116.86503 2.0868967 1.8836216 1.3333334
-116.7155 2.1096978 1.9362706 0.75
-60.650463 2.0816023 1.8692265 9
-60.444828 2.1675556 1.9468479 9
-15.962467 2.0566962 1.9731655 11
-116.89558 2.2975872 1.8568789 1.2
-116.74416 2.2939179 1.9028614 2.4000001
-116.52901 2.3602276 1.8093739 5
-61.047241 2.2910616 1.9752769 8.5
-116.88141 2.4783986 1.8731823 1.75
-116.74879 2.4453938 1.8659329 3.25
-116.57008 2.4520428 1.8311701 4
-23.007504 2.4152079 1.9964981 11
-136.51126 2.6910503 1.8676124 4
-134.70882 2.744015 1.9758291 4
-132.58214 2.7881122 1.9975936 5
-116.89861 2.6769435 1.863078 2.875
-116.75346 2.7091153 1.8989967 4.3333335
-60.349712 2.7540367 1.9505148 10
-135.25156 2.8195713 1.819068 4
-133.09212 2.8912532 1.9674802 5
-116.85893 2.8626587 1.8642509 3.75
-116.74866 2.975589 1.9167103 5
-137.75748 3.1540504 1.9048443 5
-136.03941 3.1261654 1.9537649 5
-116.87221 3.0894604 1.8601052 5
-116.73268 3.0937076 1.8771269 5.6666665
-60.321331 3.1996813 1.9728336 10
-22.945148 3.0058389 1.9607582 12
-133.09454 3.2996981 1.9340777 6
-130.78818 3.3618617 1.9779086 7
-116.90627 3.3437004 1.839905 7
-116.72034 3.3302982 1.8777725 6.3333335
-116.53291 3.3286059 1.9729509 8
-136.06738 3.5529387 1.9965262 6
-134.74905 3.4915709 1.8157582 6
-116.85278 3.5180087 1.859009 7.4285712
-116.75217 3.4861612 1.8421901 6.6666665
-31.095253 3.4052701 1.9443703 12
-133.10506 3.7043533 1.857398 7
-116.85252 3.7186973 1.8523746 8.5
-116.71698 3.7459314 1.8922634 8.1428576
-116.5647 3.7932575 1.9756532 9
-135.66023 3.9714005 1.8942327 7
-135.3018 3.9906039 1.8400733 7
-116.86037 3.9190631 1.8443459 9.75
-116.7359 3.8930509 1.8618106 8.25
-116.52917 3.8623734 1.9984522 9
-137.17099 4.1417747 1.8192639 7
-116.83595 4.1226702 1.8304617 10.25
-116.71337 4.0910568 1.9183426 10.333333
-116.5268 4.1172223 1.9549481 9.25
-116.91608 4.275723 1.9887123 12
-116.70093 4.2818799 1.8871396 10
-116.5349 4.3027802 1.9475212 9.8571424
-89.72052 4.3360624 1.9634142 10.5
-116.89314 4.4747486 1.9046477 13
-116.77222 4.4542942 1.833704 13
-116.51201 4.5221834 1.926195 11
-116.89577 4.6651821 1.8630457 13.5
-116.71571 4.6494083 1.847536 12
-116.52903 4.6965652 1.9296278 10.857142
-90.114937 4.7867136 1.9691267 13
-116.85892 4.9049301 1.8110051 15
-116.63254 4.9735184 1.9553299 13
-116.46595 4.8969588 1.8894979 11
-116.63752 5.0540304 1.9550686 14
-116.51225 5.1050954 1.9285471 11.428572
-116.62229 5.3180561 1.9539008 15
-116.48422 5.2695622 1.9187624 12.5
-90.278954 5.3249145 1.9394627 13
-116.60534 5.4950514 1.969208 14
-116.49255 5.4702516 1.9180962 11.8
-89.861603 5.4583464 1.8762503 12
-116.51669 5.7185636 1.9442781 13
-90.010399 5.659574 1.9892273 13
-116.49587 5.8836803 1.9129409 12.5
-116.51974 6.0247202 1.962182 11
-116.53029 6.2447882 1.8913617 14
-116.41328 6.583313 1.8423147 15
-116.44704 6.9521556 1.9206419 12
-93.770905 7.2929597 1.8081007 13
-116.4286 7.5214567 1.9415832 14
-116.4325 7.8971071 1.8533096 13
-116.38665 8.0128908 1.8714724 14
-116.36992 8.3837776 1.8224001 15
-116.38938 8.4293633 1.8900824 14
-24.220884 0.046844661 2.1239767 7
-61.223675 0.53076625 2.0168915 6
-60.759155 0.42921013 2.1655188 6
-60.425995 0.474792 2.0903091 6
-60.388153 0.43347275 2.075635 6
-60.736782 0.69710183 2.0155773 7
-24.140869 0.75248909 2.1394322 8
-60.603767 0.99872017 2.0522995 7
-60.421345 0.95153785 2.0101719 7
-24.356701 0.82785994 2.0827332 8
-15.370222 0.97051895 2.1392441 9
-60.63916 1.1190423 2.0482712 8
-60.424225 1.0405192 2.08465 7
-15.703878 1.1148372 2.0922384 9
-60.976852 1.2526188 2.0634594 7
-60.695229 1.2971406 2.0687675 8
-60.568771 1.225966 2.0461273 8
-24.227833 1.3291528 2.1887097 9
-24.109009 1.3207976 2.1952035 9
-15.777477 1.2133783 2.1140175 9
-60.618031 1.5220325 2.0677414 8
-60.512852 1.5288026 2.0967607 8
-31.050776 1.4885464 2.1057453 9
-26.13246 1.5037034 2.1774616 9
-25.454723 1.4563079 2.1299286 9
-24.454458 1.4832207 2.1623509 9
-24.29525 1.4455462 2.0816746 9
-15.72362 1.4751902 2.1012106 9.666667
-15.52696 1.4712925 2.0632048 10
-116.72282 1.7188965 2.0232337 1.5
-60.899292 1.7365066 2.0445757 8
-60.346386 1.6036501 2.0980167 8
-116.70004 1.9250742 2.0460823 2.3333333
-24.29837 1.9471246 2.1260986 10
-24.054569 1.9035254 2.1780958 10
-16.046036 1.9745412 2.172596 11
-15.944679 1.8531224 2.1453733 11
-15.646793 1.9196914 2.0003777 11
-116.69237 2.1877141 2.0322661 1.5
-61.042854 2.0094604 2.0209589 8
-60.92614 2.0702338 2.114706 8
-60.521503 2.0327473 2.0667014 9
-60.291306 2.1209095 2.1174238 9
-116.66079 2.2922342 2.0505626 2.4000001
-60.869007 2.2169831 2.11164 9
-60.710693 2.2895777 2.0608854 9
-25.900337 2.3564682 2.0768051 10
-116.67549 2.4806542 2.0208831 4
-116.70493 2.6711178 2.0406897 4.3333335
-61.034328 2.7755446 2.0554152 9.5
-60.693935 2.7879686 2.1242361 10
-60.572052 2.6986694 2.085247 10
-60.271107 2.6456954 2.1071074 10
-60.189072 2.672163 2.1694403 10
-135.13254 2.8285351 2.0693388 4
-116.67194 2.8727007 2.0225825 6
-60.73056 2.9972115 2.0903502 10
-60.453564 2.8120944 2.1935368 10
-136.72229 3.1316023 2.0654449 5
-133.83499 3.1260891 2.0024652 5
-132.14334 3.1559472 2.1715209 6
-116.63745 3.0488815 2.0134604 6.3333335
-135.15285 3.2172363 2.0228317 5
-132.5181 3.2293191 2.0232511 6
-116.56438 3.3484752 2.0152082 8
-61.14716 3.2217231 2.1996479 10
-60.602577 3.365144 2.0548649 11
-60.262161 3.2022409 2.113102 11
-60.145287 3.2625289 2.1142387 11
-136.62828 3.597676 2.1535649 6
-135.60005 3.5689411 2.0598168 6
-133.76302 3.5048969 2.0828433 6
-133.30965 3.416147 2.1506667 6
-116.66017 3.475275 2.0322154 7
-116.49129 3.4637501 2.0338018 8
-60.669544 3.4692736 2.0788612 11
-60.279678 3.4939842 2.0602331 11
-22.209206 3.5842361 2.0378952 13
-137.17049 3.6667826 2.1269546 6
-135.1524 3.6062133 2.0535703 6
-134.2778 3.7552514 2.0748887 7
-132.67252 3.663903 2.0396094 7
-132.17819 3.6228621 2.1262164 7
-116.59438 3.7681139 2.0027161 9
-60.27953 3.6669569 2.1133823 10
-136.08083 3.981946 2.0348091 7
-134.84225 3.8679805 2.0209 7
-116.69281 3.8613181 2.024231 7
-116.50906 3.9469948 2.0305662 9
-136.62204 4.0566964 2.1295891 7
-116.93793 4.1168041 2.0220752 11
-116.51808 4.0400615 2.0240641 9
-116.68343 4.3886428 2.1763439 9
-60.269806 4.3537164 2.0891628 13
-92.902725 4.5591311 2.1264029 13
-25.502268 4.4114385 2.0793076 13
-89.834702 4.6892014 2.1940508 13
-94.253059 4.8374763 2.1599941 13
-90.01577 4.8613544 2.0459566 12
-89.919014 4.8533344 2.0016737 11
-60.058178 4.9263382 2.1536112 14
-90.141846 5.0996242 2.0469513 12
-60.044724 5.5100431 2.117651 15
-90.156357 5.6118279 2.0084238 15
-24.311787 0.052714884 2.2453518 7
-15.298761 0.14387846 2.3453722 7
-60.761028 0.37409806 2.2676353 6
-83.853745 0.79984426 2.3705559 5
-24.295706 0.68487298 2.2175305 8
-15.752045 0.73735231 2.3422585 8
-24.493525 0.85076487 2.2349987 8
-24.348728 0.8559947 2.2743149 8
-24.189816 0.85654598 2.2081947 8
-16.0359 0.90765369 2.2898941 8.5
-15.604637 0.89206856 2.3818645 8
-15.167329 0.895944 2.3897777 9
-16.104794 1.0427678 2.3577461 9
-15.547457 1.0169165 2.2634826 9
-29.641205 1.3930842 2.2935562 9
-24.260912 1.2670941 2.216073 9
-15.924309 1.3685081 2.2847319 10
-30.335884 1.505715 2.2952194 9
-28.080263 1.4444427 2.2807567 9
-27.907173 1.4262884 2.227479 9
-16.14592 1.4483967 2.3762312 10
-15.833504 1.4874293 2.2815943 10
-115.30177 1.7170601 2.2659743 0
-115.44431 1.9863733 2.201515 1
-16.024069 1.8501644 2.306895 11
-15.896823 1.8360428 2.2806475 10.666667
-115.31223 2.1339588 2.3788302 1
-84.18634 2.0963471 2.3359184 8
-26.185894 2.1001136 2.2154007 10
-25.770008 2.1193528 2.2689724 10
-115.33253 2.3046398 2.3290787 2
-136.10701 2.6838155 2.2889662 4
-130.95522 2.7933798 2.2753954 6
-60.67189 2.7638919 2.2529869 10
-60.274811 2.7243989 2.2492294 10
-26.190256 2.7221315 2.2875652 11
-25.940516 2.732554 2.3891048 11
-132.9118 2.9322858 2.3199685 5
-61.008148 2.8792512 2.2170477 9
-60.886101 2.8712444 2.2347984 10
-26.090179 2.8311677 2.2498589 11
-137.21783 3.1766798 2.2356877 5
-136.672 3.1341691 2.3569837 5
-136.2231 3.1125693 2.3322792 5
-135.79701 3.1490481 2.2017736 5
-134.82602 3.1109562 2.3065209 5
-134.35324 3.0173302 2.2615352 5
-134.0507 3.1331701 2.3437171 5
-133.31598 3.0424736 2.2566633 5
-131.78241 3.0341387 2.3101158 6
-60.659191 3.1941974 2.2701693 11
-134.24277 3.3940349 2.2689443 6
-61.106071 3.3395655 2.2300186 11
-60.617702 3.2449658 2.2863283 11
-60.575745 3.2877326 2.2468987 11
-133.81142 3.5175719 2.3069744 6
-131.77846 3.5408645 2.2732091 7
-61.109596 3.5808008 2.2926435 11
-60.81953 3.7459428 2.3307371 12
-60.688232 3.7625365 2.3242245 12
-60.032856 3.7835121 2.2561655 12
-25.510328 3.7348404 2.277113 12
-135.21693 3.9998031 2.2664552 7
-130.66428 3.96697 2.3450189 8
-116.8948 3.985949 2.263447 9
-116.77042 3.9953039 2.3485365 10
-61.295151 3.875586 2.2303314 11
-60.762054 3.8164387 2.3690681 12
-60.110626 3.9111357 2.3188868 11.5
-25.855946 3.8486114 2.2581329 12
-117.053 4.094089 2.3344438 10.666667
-116.91809 4.1204162 2.3547387 9
-117.05057 4.2876363 2.3631058 11.75
-116.90462 4.2947264 2.3387229 9.4285717
-116.6953 4.397687 2.3993063 10
-84.044235 4.3942175 2.238905 13
-117.06268 4.544837 2.3738067 12.5
-116.89998 4.5137343 2.3017795 10.571428
-116.71652 4.4629145 2.3565526 11
-89.77359 4.5965033 2.257082 11
-42.228081 4.545404 2.2237682 13
-117.06645 4.7733812 2.3614304 13.5
-116.89901 4.7073994 2.309634 11.833333
-116.73506 4.7258554 2.3507414 12
-85.984116 4.7086515 2.3625259 13
-25.418238 4.632369 2.3612614 13
-117.02223 4.9925909 2.3638582 15
-116.88913 4.9161391 2.2999218 12.125
-94.030342 4.9935164 2.244544 14
-93.001968 4.8917828 2.2977924 14
-92.914337 4.874321 2.3659444 10
-117.09866 5.012115 2.3424582 14
-116.8407 5.1196413 2.279556 11.333333
-116.69788 5.1426659 2.3232999 10.5
-90.035522 5.1747212 2.2583513 14
-88.190933 5.1707602 2.3650599 12
-48.393501 5.0284019 2.2217846 14
-117.0325 5.2716255 2.2389827 15
-116.87251 5.2650657 2.3125737 13
-116.68255 5.3570385 2.3166845 11.333333
-116.85215 5.4988594 2.2863545 13.6
-116.74465 5.5886631 2.3677692 11
-89.406738 5.4161644 2.39503 13
-116.83022 5.7431512 2.2587261 13.5
-116.6604 5.6385813 2.269516 11
-93.450699 5.7871599 2.3366137 13
-116.86691 5.8283916 2.2741444 15
-93.075066 6.3604808 2.3443122 12
-89.447861 6.4340153 2.326725 15
-15.483721 0.065900594 2.5902753 7
-15.391042 0.02612102 2.4126968 7
-15.706994 0.34791934 2.5426178 7
-15.819019 0.58391589 2.4238005 8
-15.558523 0.57370543 2.4520617 8
-15.288341 0.45742846 2.4739919 8
-15.121553 0.55374378 2.4620056 8
-15.213758 0.60536337 2.5653734 8
-16.331066 0.96538663 2.4957721 9
-15.624914 0.93763554 2.4828701 9
-15.040471 0.87434995 2.4294615 9
-83.800934 1.1714422 2.4666729 6
-83.760223 1.1100117 2.4931002 5.25
-16.308657 1.0083771 2.5887351 9
-15.980861 1.0379205 2.4192715 9
-83.897766 1.3453014 2.4381495 6
-83.73999 1.2497401 2.5155795 5.25
-25.784271 1.3660076 2.5702457 9
-16.355202 1.3998423 2.5105157 10
-16.094324 1.2594042 2.4282842 9
-15.940838 1.3839831 2.4039001 10
-83.778755 1.4794416 2.5121908 6
-26.201633 1.472568 2.4081917 9
-25.966009 1.492337 2.5287905 9
-25.409113 1.4877487 2.5845852 9
-16.320278 1.4440684 2.5067396 10
-115.49733 1.6164227 2.5839157 0
-115.32372 1.7225589 2.553894 0
-83.739761 1.7144754 2.5018473 6.5
-25.995331 1.6099417 2.4307747 9
-25.768238 1.6489778 2.4622669 9
-16.200623 1.6716714 2.4802713 10
-115.50008 1.8699989 2.4570239 1
-115.30344 1.9146055 2.5482063 0
-83.807327 1.8585572 2.5095201 7
-83.764053 1.9584243 2.5224457 7
-25.735144 1.9188193 2.4821396 10
-16.485518 1.8677599 2.5512624 11
-115.49155 2.0918894 2.5002003 1.5
-115.34193 2.166225 2.5687211 1
-83.840912 2.1392629 2.554285 7.5
-83.744446 2.0775096 2.5230055 7.3333335
-28.125072 2.0612457 2.5411415 10
-26.007919 2.1479239 2.4369011 10
-25.958145 2.0826221 2.4877319 10
-115.48476 2.2839985 2.4893336 2
-115.33556 2.3742447 2.4779115 3
-114.7471 2.3590851 2.5924067 2
-83.77095 2.2540946 2.520443 8
-129.99562 2.5693893 2.5360327 6
-84.012886 2.467773 2.4963512 8
-25.790401 2.5043192 2.4719067 11
-135.82304 2.7241788 2.4965825 4
-132.01173 2.7165899 2.4414954 5
-83.723495 2.7277296 2.5324762 9
-135.36099 2.8020034 2.5218673 4
-133.071 2.9421358 2.5838437 5
-135.77478 3.149333 2.4629359 5
-112.51173 3.0106554 2.5341282 6
-135.30756 3.2079406 2.4920974 5
-134.37598 3.3942008 2.5538249 6
-133.05319 3.3415067 2.4719357 6
-132.666 3.263093 2.5211239 6
-83.629501 3.2246363 2.5067358 10
16.629827 3.3561461 2.4778619 12
-135.752 3.5680311 2.4385858 6
-134.7894 3.4930806 2.4072192 6
-133.46564 3.4320281 2.4486065 6
-131.45099 3.4635758 2.4490514 7
-112.49936 3.45893 2.5270858 7
-22.640884 3.5761325 2.4323635 13
-133.14557 3.7499728 2.5118377 7
-135.74139 3.9840381 2.4197736 7
-133.53357 3.8253288 2.5706086 7
-131.05162 3.9862189 2.5003581 8
-112.50877 3.9073641 2.5291967 8
-131.57034 4.0132861 2.4012527 8
-116.88031 4.1010866 2.437896 9.333333
-116.75713 4.0906525 2.5248179 9.6875
-112.53865 4.1531992 2.5996494 9
-112.35584 4.0656853 2.5866549 9
-116.8474 4.2730832 2.5748789 8.333333
-116.76406 4.2726669 2.5456057 10.375
-60.940228 4.2854691 2.5194063 13
-60.027466 4.22855 2.4243164 12
-23.072699 4.3106427 2.5214643 14
-116.74335 4.5235977 2.4585538 11.25
-112.48859 4.5074205 2.5764914 10
-87.691605 4.5594373 2.4564724 13
-87.197678 4.5982695 2.5372286 12
-24.762791 4.5025339 2.4357605 11
-116.81378 4.657022 2.4915848 9.333333
-116.76367 4.6963673 2.4887249 12.111111
-87.468277 4.7961121 2.4809189 13
-86.713745 4.7020888 2.5726528 13
-116.73602 4.9465108 2.5010326 11.833333
-112.5023 4.8627691 2.5915322 11
-89.311539 4.8698068 2.504652 12.5
-87.707741 4.9465356 2.4859571 14
-87.04071 4.9933686 2.5879211 14
-86.829056 4.9737091 2.5611916 14
-60.814922 4.8280058 2.5683355 14
-116.73549 5.1425524 2.4830661 11.25
-89.697174 5.0989141 2.4293957 14
-87.235092 5.0596495 2.4945087 13
-24.509895 5.166604 2.5667267 14
-116.7372 5.2542853 2.4635158 12
-112.48537 5.2215834 2.5705376 12
-86.773552 5.2167416 2.4047813 14
-116.72529 5.4909072 2.4903905 12.166667
-112.45731 5.5892067 2.5823421 13
-94.48848 5.5287452 2.5372009 15
-93.314445 5.5881014 2.4505053 11
-89.733063 5.5458212 2.5006838 15
-86.971619 5.4510117 2.4930143 15
-116.70708 5.6950274 2.4637897 11.8
-48.443443 5.6104574 2.563427 15
-112.47038 5.9524512 2.5614653 14
-89.348961 6.1250987 2.4976497 13
-87.957947 6.1347528 2.5109653 13
-112.47302 6.3250475 2.575036 15
-89.298523 6.3026495 2.5127459 14
-88.328072 6.6691475 2.4971972 14
-112.36481 7.4231071 2.5464888 15
-16.560158 0.18400383 2.7541742 7
-16.395987 0.14290515 2.7404642 7
-15.515843 0.1447376 2.6282167 7
-16.532181 0.59147072 2.6651363 8
-15.679489 0.51975918 2.6116123 8
-15.398248 0.48690844 2.6540871 8
-16.134859 0.73764473 2.6251469 8
-15.896291 0.61964214 2.6488862 8
-16.488337 0.97326404 2.74208 9
-16.395615 0.97022438 2.6344347 9
-28.737286 1.3561779 2.654871 9
-16.403969 1.3986771 2.7912436 10
-28.425861 1.4055293 2.6386747 9
-28.390842 1.4100591 2.6870995 9
-25.683315 1.5479265 2.6110783 9
-16.506641 1.4682133 2.7541778 10
-16.350101 1.4527173 2.7074289 10
-115.31201 1.9434624 2.6098123 1
-115.09409 1.9677802 2.6538715 1
-114.96066 1.9928309 2.7129498 0
-112.49426 1.8722291 2.7014508 2
-22.886936 1.8370786 2.7964239 10
-22.777773 1.8165221 2.747818 10
-16.814375 1.8969834 2.6601715 11
-115.2535 2.180264 2.6189547 2
-115.08329 2.1975005 2.6593766 2
-114.95578 2.1891162 2.6925111 1
-112.45425 2.1704638 2.7888508 3.3333333
-30.366632 2.1171372 2.6885147 10
-114.95254 2.3765998 2.6483822 2
-114.58807 2.2063107 2.771657 1
-112.4314 2.3319225 2.7793875 3
-83.82547 2.3579304 2.6299953 8
-25.491077 2.3013153 2.7625093 10
-112.44257 2.5336816 2.7730057 3.6666667
-83.85788 2.4718342 2.6745579 8
-25.742523 2.5226576 2.6327105 11
-25.277714 2.5883827 2.615509 10
-25.178848 2.4331746 2.7720814 10
-134.32001 2.651082 2.6089444 4
-134.10861 2.7657702 2.6789007 4
-112.50779 2.6533191 2.7298591 5
-83.859985 2.7479405 2.7209873 9
-83.792068 2.7927272 2.6788044 9
-78.465157 2.7154846 2.7833061 8
-28.322762 2.6720245 2.6958714 11
-28.140518 2.7227135 2.7628479 11
-132.53725 2.8483229 2.6695848 5
-131.45558 2.9308476 2.6602297 6
-131.07555 2.8252676 2.7268238 6
-112.38927 2.8712463 2.784734 5
-83.902504 2.9115319 2.7361183 9
-30.322605 2.9006362 2.6841002 11
-134.93295 3.101522 2.7310629 5
-134.41492 3.018018 2.6130924 5
-133.99115 3.1550758 2.643877 5
-133.60403 3.0550158 2.7071853 5
-132.23634 3.1927185 2.6825643 6
-112.48434 3.0964613 2.6924896 6
-112.37629 3.1239014 2.7650635 6.5
-83.926163 3.1749637 2.7600384 10
-23.298058 3.0403726 2.7279377 12
-130.07544 3.2438354 2.6710825 7
-112.43445 3.2519209 2.7152672 7
-112.33596 3.3101461 2.7270505 7.6666665
-83.894485 3.2990222 2.7216492 10
-24.954531 3.3876283 2.6147442 10
-133.54066 3.4481587 2.7171922 6
-131.49536 3.4865437 2.7816286 7
-130.93936 3.4090693 2.6667786 7
-112.48733 3.4754753 2.658134 7.3333335
-112.32986 3.5380795 2.7205272 8.1999998
-132.71201 3.7069168 2.6568708 7
-132.1859 3.6657894 2.7517197 7
-112.45166 3.6943438 2.7265232 7.3333335
-112.3566 3.6638935 2.7492452 8.666667
-25.559631 3.6253152 2.7570763 12
-130.72847 3.9900742 2.7219062 8
-130.18027 3.9101064 2.6259193 8
-112.47494 3.8467476 2.6456258 9
-112.32671 3.8971248 2.7346175 9.6999998
-112.32046 4.1056924 2.7251556 10.6
-112.4124 4.2976933 2.769851 8
-112.34394 4.2995639 2.7463505 11
-86.71077 4.2111421 2.7254305 12
-48.33984 4.3386865 2.6388798 13
-24.951912 4.3823986 2.7035522 13
-24.482069 4.3359098 2.7646122 14
-112.31709 4.4909334 2.7177956 12.125
-87.044884 4.5832458 2.6860867 13
-86.761658 4.5117307 2.6726933 13
-85.798691 4.5575171 2.7991223 10
-24.696095 4.497612 2.7014904 13
-112.31596 4.6826053 2.7321162 11.875
-86.978851 4.7930346 2.787797 14
-112.40109 4.8569889 2.7601118 9
-112.32342 4.8915009 2.7161994 13.333333
-89.079002 4.9735408 2.7246122 13
-88.466118 4.8940206 2.7230482 13
-86.97493 4.8809357 2.7583809 12
-24.538559 4.9635291 2.6504803 15
-112.28333 5.0641994 2.708956 13.833333
-110.41242 5.0341659 2.7101879 12
-88.687149 5.1813545 2.7300043 13
-87.352104 5.0012164 2.7395658 14
-85.84198 5.0955715 2.7926245 14
-42.433647 5.1721272 2.6119633 14
-24.493656 5.0630412 2.6295261 15
-112.30133 5.301136 2.7334821 12.833333
-110.28321 5.2342606 2.7706223 12
-89.28788 5.2069583 2.7598906 14
-87.303123 5.2582483 2.6072931 14
-112.34641 5.4399238 2.738234 12
-110.17101 5.4580197 2.7612324 13
-85.858734 5.4721079 2.7971845 11
-112.26536 5.7051101 2.6633902 13.333333
-110.10031 5.7317162 2.7356205 13
-89.183014 5.6416359 2.7421312 15
-112.29596 5.9654474 2.6401901 11
-110.23626 5.8928938 2.7333696 14
-110.02929 5.8978472 2.7279692 14
-87.870392 5.8371334 2.6789322 13
-85.761681 5.9453211 2.7865973 13
-112.27722 6.0267401 2.6760621 15
-110.09967 6.0222864 2.7953434 13
-85.758751 6.1294293 2.6639738 14
-79.826942 6.1285982 2.6079807 13
-112.28873 6.3042049 2.6728797 12
-109.99289 6.3578291 2.7206268 15
-85.623383 6.2766986 2.6765356 12
-112.31178 6.4917865 2.693341 12
-112.27203 7.0925789 2.6455328 13.333333
-93.38681 7.0679712 2.622201 13
-112.23973 7.3871117 2.658742 14
-9.9240017 -1.7358752 2.9198256 0
-16.605145 0.16941309 2.8867197 7
-16.542114 0.095573604 2.8484602 7
-55.674225 0.50384319 2.9347916 7
-16.509699 0.52162492 2.9407487 8
-16.380629 0.55722094 2.8905578 8
-55.611237 0.742226 2.9480152 7
-16.471664 0.6245507 2.9178247 8
-55.943729 0.95547795 2.997653 7
-56.310825 1.1214139 2.953155 7
-55.689011 1.1843305 2.9270496 8
-55.628639 1.323118 2.9922886 8
-79.008041 1.4945383 2.9150591 7
-25.216267 1.5630201 2.8917265 9
-16.39131 1.4182034 2.8032866 10
-56.244293 1.8644655 2.9835081 8
-114.59387 2.0165243 2.8024745 0
-79.091217 2.0280261 2.914772 8
-78.989799 2.0412116 2.8501778 8
-78.484596 2.1156492 2.9623899 8
-78.607887 2.3881273 2.9679241 8
-78.570419 2.3292527 2.9913025 8
-25.231722 2.2756946 2.8783169 10
-130.18889 2.5956635 2.9573646 6
-112.36021 2.4273162 2.805486 3
-78.935692 2.590313 2.8818846 9
-78.55954 2.5330977 2.9643707 8
-29.344545 2.594995 2.9529877 11
-22.837658 2.4256058 2.8138742 11
-132.42937 2.7293792 2.9132602 5
-130.78052 2.746628 2.9536581 6
-112.40843 2.6992261 2.8266125 4
-112.3653 2.6822538 2.8355398 4
-78.975342 2.6197631 2.9134092 9
-78.488052 2.699183 2.9197097 8.5
-25.359423 2.7054925 2.9313889 11
-24.969761 2.6098728 2.9483662 11
-23.493513 2.631911 2.9959297 11
-133.12642 2.9565797 2.8212276 5
-112.36678 2.8913329 2.8100603 5.3333335
-78.478813 2.8425412 2.8583612 9
-112.34047 3.1309495 2.8222136 6
-110.93584 3.028152 2.9847136 6
-132.72322 3.2871621 2.8638992 6
-112.43382 3.2056186 2.8630486 6
-112.35284 3.3504391 2.8160839 7.3333335
-84.046204 3.3623588 2.8664446 10
-83.932907 3.261471 2.8115196 10
-25.1516 3.4105115 2.9458408 11
-112.42706 3.7598796 2.8165021 7
-112.30956 3.6676767 2.8261082 8.5
-24.725147 3.7123106 2.8356361 12
-112.31841 3.8365724 2.8363309 9
-25.419296 3.8362627 2.8257256 12
-25.314749 3.947896 2.9740467 12.5
-86.80928 4.0676146 2.8290844 12
-85.540527 4.1637135 2.8100462 10
-112.29924 4.3024349 2.8023477 11
-86.957222 4.370141 2.9413681 13
-112.29237 4.5375338 2.8163359 12
-87.346161 4.5482459 2.8051205 13
-85.805138 4.4766107 2.924572 12
-112.28551 4.7756214 2.8003566 13
-86.913353 4.6628199 2.9766369 14
-85.844826 4.7205305 2.8246949 10.5
-24.382648 4.6217918 2.9990444 14
-89.021538 4.8149672 2.884408 13
-85.628159 4.8775444 2.8379908 10
-88.953735 5.2344942 2.9137783 14
-88.294762 5.3584957 2.9181566 14
-87.225876 5.3446479 2.9874516 13
-85.905167 5.3234262 2.8285656 12
-85.762497 5.374495 2.9706192 14
-87.626152 5.4370217 2.8096104 14
-85.825409 5.533237 2.8966713 14
-89.081825 5.763134 2.8384123 13
-88.418724 5.6818447 2.9910259 14
-88.268021 5.6150169 2.8321171 12
-85.781906 5.6961956 2.8401089 11
-88.296738 5.8784275 2.8618069 15
-82.455307 6.1940804 2.9427776 15
-88.340286 6.2518673 2.8666649 15
-85.509155 6.5673914 2.8038068 12
-85.596062 6.7051444 2.9093761 15
-80.37117 7.3677063 2.8477011 15
-112.00449 8.3888245 2.9209223 15
-55.880562 0.3839438 3.0861225 6
-55.614464 0.38681149 3.10425 6
-16.543242 0.59540379 3.0518904 8
-55.946056 0.74979293 3.0084114 7
-55.772594 0.63395834 3.0089912 7
-16.597319 0.63486737 3.0440531 8
-78.685921 0.90739989 3.1827393 5
-78.576874 0.91940755 3.1459262 5
-55.832176 0.98574531 3.0502224 7
-55.627663 0.86350024 3.0339928 7
-55.588203 0.90597808 3.0398979 7
-78.654205 1.0434463 3.1423492 5.5
-78.576675 1.0558105 3.1662912 5
-55.924599 1.0812206 3.0386596 7.5
-16.473921 1.0571814 3.0565996 9
-78.633896 1.262928 3.1277676 6
-78.537842 1.393472 3.1038351 6
-55.783936 1.2371123 3.0707617 8
-78.662964 1.4920666 3.1157961 6
-78.538628 1.5642328 3.0313473 7
-55.851501 1.4829985 3.0738034 8
-55.701214 1.5080577 3.1371725 8
-78.634529 1.7597605 3.0648565 7
-78.571625 1.7999085 3.099369 7
-55.785538 1.6243024 3.1617861 8
-111.12355 1.8333166 3.1636786 3
-110.74787 1.8526492 3.1364925 4.3333335
-78.630379 1.9399216 3.0596189 7
-78.550972 1.8626678 3.0864468 7
-55.866562 1.8917484 3.1195364 9
-55.695015 1.9073464 3.1024406 9
-23.570091 1.8589953 3.074811 10
-110.73486 2.1158414 3.1501648 5
-78.612823 2.1160848 3.0074496 8
-55.589905 2.0563002 3.1688576 9
-28.482363 2.0184367 3.0161018 10
-23.979952 2.1845641 3.0845432 10
-111.06642 2.230144 3.1801972 4
-110.70118 2.280961 3.1413038 5.5
-78.55191 2.2352257 3.0428081 8
-55.787205 2.2202873 3.1451225 9
-24.927841 2.3756127 3.1774158 10
-24.698017 2.267767 3.0630264 10
-131.70879 2.5974674 3.0973887 5
-110.99768 2.5618429 3.0974422 5
-110.69714 2.5034149 3.1744502 5.5
-78.477287 2.5370576 3.0434349 8.666667
-55.674065 2.5397348 3.115181 10
-24.79195 2.4458175 3.1457291 10
-145.396 2.6845515 3.1744723 5
-78.526855 2.6789551 3.0624323 9
-55.825062 2.607043 3.1884222 10
-55.681839 2.7151809 3.0489893 10
-25.340981 2.6769266 3.049283 11
-24.915936 2.6827834 3.0426426 11
-24.642918 2.6881909 3.1227837 11
-132.86185 2.8539248 3.0075605 5
-78.541397 2.9804077 3.1187241 9.666667
-131.74242 3.0937147 3.0491436 6
-110.86557 3.1374912 3.1127656 7
-110.75032 3.1182947 3.140533 8
-78.608475 3.0839903 3.1695442 10
-78.549072 3.0067847 3.1598682 10
-55.824417 3.1590044 3.1941566 11
-130.2341 3.2725804 3.1045556 7
-110.69295 3.2850111 3.1618383 8
-56.199478 3.3374949 3.1572084 10
-25.362091 3.2907631 3.1010177 12
-24.411097 3.2606275 3.1248283 12
-111.00424 3.5625916 3.1981168 8
-110.68025 3.5655022 3.168798 9
-55.667419 3.4538674 3.1399193 11
-24.155848 3.5874 3.0379562 11
-111.01854 3.662611 3.1771922 9
-110.96414 3.6216395 3.189435 8
-110.68368 3.7913778 3.1777854 10
-55.644112 3.621181 3.1326866 11
-110.67297 3.9195406 3.1880617 10
-86.943336 3.9659972 3.0533981 12
-82.083221 3.8517966 3.1042347 11.5
-25.302998 3.9220991 3.0500393 13
-24.421797 3.9594932 3.1622543 13
-110.97427 4.0953436 3.1646867 9.5
