# .PCD v0.7 - Point Cloud Data file format
VERSION 0.7
FIELDS x y z intensity
SIZE 4 4 4 4
TYPE F F F F
COUNT 1 1 1 1
WIDTH 1272
HEIGHT 1
VIEWPOINT 0 0 0 1 0 0 0
POINTS 1272
DATA ascii
12.681612 4.1257658 -7.761847 12.0976
13.083118 4.3791099 -7.7799425 12.1695
16.754419 4.2054458 -7.928977 13.1565
17.716187 4.3404188 -7.6721773 11.1695
-109.60504 4.7522411 -7.9820929 11
-109.45856 4.698905 -7.9723902 11
-104.18547 4.7563372 -7.6025276 11.054
-16.787237 4.4113016 -7.9844189 14.0315
-15.460302 4.7975621 -7.8320398 14.026
-8.8005686 4.5710163 -7.6345215 12
-8.0712061 4.7880058 -7.8399143 12.014
-7.7312374 4.700809 -7.9810181 11.013
-109.68801 4.8698049 -7.9433408 11.018001
-109.37331 4.8225989 -7.9839749 11
-104.16227 4.874692 -7.6844492 11.056
-90.398872 5.0479698 -7.8029432 11.022
-21.65329 5.1497374 -7.7469215 13.0305
-20.523378 5.1705432 -7.7464418 14.0345
-20.336868 5.1003046 -7.740881 13.029
-19.872459 5.0693054 -7.8363938 13.531
-19.117912 5.1662083 -7.8730335 13.0265
-15.737134 4.9613795 -7.7086234 15.030251
-15.567343 4.9016051 -7.8590508 14.0255
-13.50207 5.0938783 -7.9211121 13.02
-10.550108 5.1086984 -7.6351147 12.015
-4.9132671 5.0163422 -7.8771749 11.0115
13.129671 4.9875302 -7.8843932 14.1635
13.442348 4.9984303 -7.7403021 12.172
14.105456 4.9929438 -7.8364887 11.177
-109.73613 5.3223214 -7.8247552 12.01685
-109.43713 5.2995644 -7.8357005 12.017214
-109.10239 5.2851934 -7.7400331 11.508875
-104.32166 5.5945387 -7.6405783 12.0285
-90.578743 5.4755964 -7.6154618 10.027
-21.771326 5.5996137 -7.9940739 14.0325
-21.053448 5.3243828 -7.8750286 12.02
-15.722073 5.337254 -7.9440498 14.024333
-13.267497 5.4323955 -7.818131 14.020833
-5.20578 5.3738928 -7.7344303 11.0115
-4.7011642 5.2137508 -7.8427906 12.011
13.515133 5.4190555 -7.6330953 14.1645
13.696428 5.3806124 -7.8086414 13.17
14.063269 5.2227092 -7.9083986 15.1585
15.175381 5.3425488 -7.90588 11.1775
16.192003 5.5368719 -7.9134254 12.172001
-133.92958 5.9757824 -7.9688978 12.08
-132.6649 5.9945951 -7.9033504 13.0865
-131.86234 5.9913893 -7.8328762 10.035749
-113.37067 5.8210211 -7.6732221 12.05575
-110.14761 5.6689548 -7.7594004 12.0545
-109.71281 5.852726 -7.7367926 12.8289
-109.56847 5.8729448 -7.6477232 13
-104.50423 5.7334642 -7.876092 12.02775
-93.648872 5.6906805 -7.8212976 11.019
-91.507797 5.7429705 -7.7017641 13.0395
-90.924637 5.8167849 -7.7874656 12.0235
-90.737823 5.7356057 -7.8658624 12.703334
-29.201973 5.8919163 -7.6208706 13.039
-22.23967 5.7593937 -7.9795647 14.032
-18.882526 5.6877289 -7.6810479 15.032
-16.349876 5.7544427 -7.905674 15.0265
-13.743165 5.6509104 -7.649662 14.0215
-13.367869 5.6439185 -7.6873474 14
-13.120453 5.8302574 -7.8186092 15.0215
-11.731507 5.6902924 -7.8115902 13.518
-8.7729797 5.9462113 -7.8638287 12.0135
-5.0807133 5.7398577 -7.6585598 14.011
16.121958 5.6292419 -7.615304 15.1565
16.471575 5.9552703 -7.8546658 11.179
-134.04488 6.2018771 -7.855875 12.077
-133.29361 6.2472086 -7.6435995 11.6293
-133.01103 6.1606903 -7.7830529 12.2327
-132.69931 6.1977363 -7.7955356 12.231389
-132.06566 6.283802 -7.716258 13.078
-131.8107 6.2704992 -7.8724284 12.5485
-131.59738 6.2338223 -7.9062481 13
-113.38641 6.1443081 -7.7536545 13.052
-104.43065 6.0402579 -7.9836464 12.029
-98.845848 6.324152 -7.7352285 13.0545
-20.431675 6.0719471 -7.7971096 14.028
-19.211302 6.0083728 -7.6451941 15.0305
-12.71936 6.0015454 -7.9145718 14.02
15.8283 6.1499772 -7.7162247 14.1645
17.522823 6.3397708 -7.6071281 11
-134.02982 6.5870161 -7.7145796 13.0805
-133.76506 6.7100639 -7.7751164 12.410167
-133.30458 6.5594072 -7.6519928 11.0695
-133.02075 6.6667142 -7.7837243 13.257111
-132.65077 6.6604881 -7.8435516 13.031199
-132.17288 6.6325264 -7.8513927 11.767625
-131.74547 6.567627 -7.7305093 12.861167
-131.49651 6.6524839 -7.8792124 13.4238
-114.02549 6.5257616 -7.888041 15.042
-113.81976 6.5457916 -7.7754645 15.0415
-113.56285 6.5802603 -7.7030835 15.041
-113.00828 6.6843967 -7.8858776 14
-112.25889 6.4565315 -7.7098799 14.0435
-109.64993 6.4739242 -7.6510606 14.011333
-109.59043 6.4690018 -7.6176171 14
-98.934708 6.5083303 -7.7898521 14.0415
-93.565582 6.4977636 -7.7509279 14.0425
-92.876358 6.5061994 -7.8919344 14.0415
-92.583702 6.5701156 -7.7913713 14.041
-92.36618 6.5805607 -7.745862 14.0465
-9.1827049 6.502532 -7.7640018 14.0155
47.681591 6.7989373 -7.8829894 11.1525
-134.08276 6.9916992 -7.7760925 13.412167
-133.72734 6.9826531 -7.6888223 13.414333
-133.38362 7.0525975 -7.8257556 12.705499
-133.11534 6.9902644 -7.7444649 13.389
-132.63928 6.9700546 -7.8931365 14.362167
-132.13654 7.0346589 -7.7695518 12.403
-131.79346 6.9484539 -7.8344498 12.384063
-131.45711 7.058157 -7.915514 13.179166
-111.76955 6.9761896 -7.8432693 15.04
-109.6455 7.0693417 -7.6379242 15
-109.46057 7.1511631 -7.6228328 15.0335
-136.82062 7.5489702 -7.9797144 11.072
-134.01489 7.2025042 -7.7446527 12.0705
-133.39828 7.3392897 -7.8444381 12.044299
-133.1264 7.3526974 -7.8520298 14.5
-132.53667 7.3012395 -7.7572589 14.166667
-132.1003 7.3915682 -7.7303052 12.53425
-131.73685 7.3410769 -7.7994857 12.45735
-131.40701 7.3373909 -7.8127275 13.31395
-102.99516 7.3951483 -7.8657436 15.0305
-100.84409 7.2157149 -7.6003437 14.025
-100.78209 7.4974804 -7.9789476 13.063
-92.042717 7.2537355 -7.7407146 12.019
-90.386658 7.2601357 -7.8355713 15.035
49.712505 7.2089214 -7.8889732 11.1555
54.415352 7.2554803 -7.8776784 11.15
-136.90952 7.8054504 -7.7872996 12.409
-136.60143 7.8705153 -7.9091163 15.061168
-135.2366 7.914897 -7.7447891 12.0705
-135.00967 7.7723718 -7.8068757 14.078699
-134.06676 7.602169 -7.7090483 13.0725
-133.76553 7.8137083 -7.6771955 13.573
-133.1727 7.7045956 -7.6159391 13.5355
-132.17537 7.6785774 -7.7890816 12
-131.73605 7.7539544 -7.80968 13.4145
-131.38361 7.6716709 -7.791431 15
-131.13928 7.6351233 -7.8702984 15
-136.48044 8.0395927 -7.8427639 14.58325
-135.63158 8.202858 -7.9547586 15.082
-135.03372 8.3162689 -7.7788134 12.071
-134.75755 8.3631477 -7.7292719 15.078
-134.10208 8.2679482 -7.7125387 13.0755
-133.96985 8.2096615 -7.8824196 15.077
-133.39323 8.1119509 -7.9569545 13.0255
-133.15273 8.0478144 -7.9544239 15
-132.47424 8.3574314 -7.7729549 13
-132.30579 8.2290735 -7.8119197 11.7155
-93.191879 8.0170164 -7.9797769 13.019
-11.403961 8.0202332 -7.6745033 14.015
63.80048 8.3652487 -7.7152133 11.149
-144.59552 8.7992849 -7.6522799 12.076
-134.22935 8.5613766 -7.8972201 12.071751
-133.28302 8.7147255 -7.8114567 13.0695
-132.99216 8.4423723 -7.6981487 13
-132.48024 8.7339067 -7.7657814 14.070333
-132.15152 8.4767189 -7.8904781 14.570749
-131.8195 8.6369066 -7.8115983 13.356334
-95.104172 8.703824 -7.9719892 14.02
-135.51263 8.9406548 -7.9146414 12.072
-132.25787 8.947361 -7.8480291 14.534875
-131.73199 8.8251419 -7.8596077 13.53525
-95.552788 9.1032276 -7.7408056 15.02
-163.12083 9.3748484 -7.6876583 11.089
-161.41818 9.2930136 -7.7158132 11.085
-132.99054 9.4317989 -7.8970909 12.692
-132.71783 9.3345881 -7.9502845 13.5
-132.11737 9.3088875 -7.7682867 14
-168.06345 9.733325 -7.8842602 11.099
-135.12973 9.6138401 -7.9696484 12.073
-93.898018 9.9246025 -7.7629619 15.019
-167.6819 10.132905 -7.8965888 11.086
-149.66135 10.154911 -7.8998661 12.0755
-149.41278 10.239221 -7.7638559 12.07925
-135.24768 10.031145 -7.9222498 13.0715
10.37326 -2.5249863 -7.4622803 3
10.60406 -2.5308332 -7.4032674 2
12.712917 -2.5820999 -7.2913828 3.5
13.240183 -2.4213212 -7.4708266 3
-2.8909554 -2.005795 -7.2123928 2
-2.665112 -2.0091729 -7.2896976 3
-1.3169261 -2.0054796 -7.2961044 2
1.7622929 -2.3213899 -7.5210629 2
2.162375 -2.3236265 -7.4029121 2
2.5610628 -2.3277001 -7.2802763 2
4.2921672 -2.3878188 -7.3380208 3
4.6781564 -2.3006201 -7.380096 2.5
13.361249 -2.2689641 -7.3264389 5
13.693035 -2.125324 -7.4178748 4
16.937092 -2.2541409 -7.2821441 4.5
18.480354 -2.0859022 -7.2950249 5
19.290859 -2.1528771 -7.2595844 5
21.570726 -2.3564723 -7.4037857 5
21.934093 -2.388149 -7.3629441 5
28.262295 -2.0031781 -7.4834518 6
-7.1317492 -1.6585598 -7.4601207 3.5
-6.4603033 -1.7347441 -7.3299913 4.5
-6.1288524 -1.7805322 -7.372272 4
-5.8311458 -1.8294523 -7.4325743 4
-5.4836936 -1.8518883 -7.4414616 3
-4.9217463 -1.9542696 -7.3992014 2.5
-4.5734649 -1.9560833 -7.3133469 3.5
-4.1624327 -1.9451394 -7.3597941 3
-3.8251684 -1.9635322 -7.4268761 2
-2.9209015 -1.9875561 -7.2456379 4
-1.7022117 -1.7779565 -7.3466659 2
-1.5837109 -1.7357197 -7.2556019 2
5.098865 -1.8455358 -7.3790774 2.5
5.407537 -1.7110205 -7.3544507 3
5.7784653 -1.7637303 -7.5450802 3
6.0836329 -1.7340432 -7.5755825 5
17.007406 -1.6261319 -7.2758131 5
27.968763 -1.7816765 -7.3234835 6
28.178211 -1.8123361 -7.3739834 6
-11.945357 -1.2453301 -7.5767164 5
-11.027781 -1.2645671 -7.300015 5
-10.574356 -1.3304818 -7.4876924 5
-10.18017 -1.3703227 -7.3472958 5
-9.7441597 -1.36263 -7.3903666 5
-9.4319324 -1.3873662 -7.4486432 5.6666665
-8.9706526 -1.3833202 -7.3684754 5.5
-8.7001181 -1.3677845 -7.4128003 4.7142859
-8.0854588 -1.5293843 -7.5512924 5
-7.9000397 -1.5224586 -7.2758007 4
-7.5192304 -1.5880295 -7.3827124 4.5
17.00791 -1.2443495 -7.3590488 6
-17.221525 -0.88023275 -7.2026081 6
-16.874727 -0.92037964 -7.3384724 6
-16.609894 -0.92818362 -7.31565 6
-16.177599 -0.95792878 -7.4347725 6
-15.251564 -0.87158871 -7.2376213 6
-14.967397 -0.89573997 -7.43542 6
-14.737344 -0.90894413 -7.5209842 6
-8.8617821 -0.99985707 -7.4108291 6
-8.7195635 -0.97800136 -7.4092374 5.5789475
16.95706 -1.0873547 -7.3536301 6
-15.97588 -0.64020133 -7.3696232 7
-15.532377 -0.45246744 -7.2551441 7
-15.041186 -0.63107336 -7.4536018 7
-8.8366117 -0.71793014 -7.4224052 6
-8.6760178 -0.66837132 -7.4048872 6
16.849588 -0.42083076 -7.3565698 7
45.006733 -0.72853267 -7.3185387 7
-25.562187 -0.364409 -7.5187635 7
-25.153749 -0.35626751 -7.4398766 7
-24.775108 -0.37445289 -7.3863435 7
-23.417068 -0.31238362 -7.4183006 7
-15.658623 -0.35793722 -7.4837646 7
-8.6513462 -0.19202119 -7.4236236 7
16.865995 -0.32321742 -7.270668 7
-8.8110361 0.27533096 -7.4279099 8
-8.685873 0.28168166 -7.4536395 8
16.749496 0.32654849 -7.3000107 8
-54.036587 0.46746016 -7.2710934 7
-53.946304 0.51666188 -7.5124369 7
-8.8144855 0.60227031 -7.4489312 8.5
-8.7047901 0.61908573 -7.4606752 8.4499998
16.613375 0.7344135 -7.3661003 8.1684999
31.409489 0.51102185 -7.4661951 8.1482506
45.744034 0.54776585 -7.2897058 8.1432495
50.428844 0.53203315 -7.4385195 8.1440001
-88.993767 0.80559134 -7.2175713 6
-8.8149204 1.087815 -7.5566206 9
-8.7268028 0.94844711 -7.4796762 9.0006428
16.604319 0.81505334 -7.3907609 8.1707497
30.515327 1.0464795 -7.476119 8.1645002
30.817263 0.81606925 -7.2410412 8.1575003
32.598633 1.0984128 -7.5167146 8.1647491
44.947365 1.0615377 -7.4899168 8.1545
50.565437 0.88237935 -7.3526282 8.1485004
-120.47797 1.5677316 -7.3260403 6
-120.3252 1.5867083 -7.4508648 5
-119.87392 1.5796167 -7.5799446 4.5
-119.48547 1.5786455 -7.5743856 4
-118.8155 1.5548341 -7.5456076 4
-118.59178 1.495941 -7.4198389 5
-118.00748 1.4820323 -7.2325878 5
-117.80657 1.489195 -7.4494858 4.5
-117.33767 1.4716543 -7.501739 4.3333335
-116.91746 1.506653 -7.4258308 4.3333335
-116.69615 1.5202928 -7.5913076 4
-116.33845 1.5709591 -7.4022312 5
-115.49263 1.5011268 -7.2409859 6
-115.01576 1.5151314 -7.3137708 5.5
-114.64869 1.5280457 -7.2584152 5
-114.30118 1.4976745 -7.3250685 6
-113.84614 1.4857621 -7.3874626 5
-113.31644 1.4718168 -7.367342 5
-113.03825 1.4570382 -7.4020061 5
-112.78624 1.4615116 -7.3122034 5
-112.19286 1.4139185 -7.478857 5
-111.9006 1.468725 -7.3203421 6
-111.3671 1.3963057 -7.4261823 5.3333335
-110.96372 1.3901329 -7.4176121 5.75
-110.60026 1.3821411 -7.3922257 5.3333335
-110.19985 1.4160529 -7.3578162 5
-109.87453 1.4451536 -7.3768511 5.5
-109.46371 1.4628639 -7.5049276 6
-109.03346 1.4036894 -7.3117876 6
-108.56992 1.3892004 -7.4157352 6.5
-108.35466 1.3959677 -7.4020052 6
-107.40862 1.4369295 -7.4303808 6.5
-106.96725 1.3503608 -7.4761453 6.3333335
-106.55766 1.2967567 -7.3167248 7
-106.31297 1.2955136 -7.3840933 6
-105.76431 1.306267 -7.3003588 6
-104.97191 1.3169277 -7.3492198 7.0324998
-104.58845 1.5526935 -7.3783636 7
-104.1639 1.4263388 -7.3833008 6.4000001
-103.69814 1.4342053 -7.4263639 6.4000001
-103.52667 1.465403 -7.3339858 6
-102.97826 1.5048072 -7.3753982 6.25
-102.52116 1.5079585 -7.2829366 6.5
-102.35034 1.4195311 -7.2887187 6.5
-101.88076 1.4160389 -7.2532582 6.5
-100.1723 1.3554157 -7.4405217 6
-99.196877 1.3680854 -7.5451584 6
-98.356987 1.3463931 -7.2579117 6
-8.8298903 1.4190187 -7.4136114 10.129625
-8.742034 1.3780278 -7.4655848 9.8888893
16.384485 1.578788 -7.2416592 10.1475
-129.72943 1.982655 -7.384284 4.5
-129.37529 1.9268972 -7.3127146 5.5
-128.14021 1.7869629 -7.2945848 4.6666665
-127.77213 1.7865424 -7.4028931 4.5
-127.396 1.7851152 -7.5078216 4.3333335
-127.05064 1.7527049 -7.4193416 4
-126.5172 1.7362511 -7.2939205 4.5
-126.1862 1.7286868 -7.410615 4.5
-125.84866 1.721427 -7.5116291 4.5
-123.77045 1.7179161 -7.2670398 5
-123.41722 1.7111999 -7.3212948 4.5
-123.03613 1.6959654 -7.4313393 4.5
-122.49353 1.6871617 -7.3898325 4
-122.14777 1.6716275 -7.3685694 5
-121.80645 1.6600094 -7.475389 4.6666665
-121.34223 1.646256 -7.5173759 4
-121.13465 1.6381688 -7.5359755 4
-120.71568 1.6140326 -7.4365172 4.5
-120.216 1.6059618 -7.5705299 4
-116.52834 1.6291887 -7.5795021 4
-116.15314 1.6222072 -7.4044232 4
-103.89137 1.7219337 -7.5377746 7.0355
-103.52387 1.7416091 -7.4778514 7
-103.00354 1.626273 -7.3194556 6.5
-102.44826 1.8460162 -7.4562988 7
-8.8430433 1.9295852 -7.4438496 11
-8.7342129 1.8273194 -7.4875407 10.391891
17.033239 1.6134654 -7.3970661 10
-140.21385 2.3930719 -7.3915129 6
-139.7939 2.388329 -7.5573206 6
-139.54919 2.3425598 -7.2720337 7
-136.23283 2.2727585 -7.4118824 6
-135.98729 2.1770759 -7.5441856 7
-135.36136 2.2164841 -7.3401208 6
-134.6378 2.1909492 -7.2462153 5
-134.21582 2.1928873 -7.3918276 5
-132.98448 2.1164651 -7.4195747 6.5
-132.6407 2.1160321 -7.4055104 6
-132.33032 2.1034427 -7.5933576 6
-131.7765 2.0997691 -7.3178315 5
-131.4267 2.0940757 -7.4625082 5
-131.19778 2.0889974 -7.5636253 5
-130.74725 2.0321198 -7.3018703 6
-130.21054 2.0101318 -7.4006429 5.5
-104.94412 2.1404705 -7.3539124 8.0710001
-104.55889 2.241888 -7.2331991 8
-102.92517 2.1393287 -7.5719147 8.0690002
-102.53322 2.2785344 -7.4640317 8.06075
-102.03693 2.1890037 -7.3894844 8.0644999
-101.87376 2.1817498 -7.4661255 8.066
-100.16287 2.1643147 -7.5986795 8.0625
-98.506172 2.1401129 -7.200654 8.0614996
-21.030277 2.3777571 -7.2905674 10.027
-8.841526 2.2530112 -7.4255385 11.4032
-8.7409039 2.2323167 -7.4538193 11.7
13.649597 2.1274507 -7.2054486 10.164
16.134705 2.2005687 -7.4615788 11.148
-150.991 2.6984491 -7.3660717 7
-144.04654 2.5386364 -7.3815889 7
-142.96233 2.5089808 -7.2287602 6
-142.47046 2.5059319 -7.4100938 6
-141.03081 2.4275942 -7.2400303 7
-140.32033 2.4081764 -7.5371571 7
-21.009544 2.4116006 -7.4440994 10.026
-20.250313 2.7282159 -7.5507083 11.0345
-8.8278637 2.6147757 -7.4795933 11.75
-8.7501383 2.5916996 -7.4872546 11.723445
13.49649 2.4798 -7.5186467 11.161
13.878798 2.5335817 -7.410265 11.407874
14.032269 2.5368445 -7.3777909 12.1495
15.932753 2.5317657 -7.3998299 11.1565
31.324074 2.7419195 -7.5333481 10.1445
-20.588352 2.8538933 -7.5292225 11.0325
-8.8313494 3.0118816 -7.4095078 12.576429
-8.7491999 2.960299 -7.4603028 13.702301
14.028338 2.8937018 -7.5224066 10.1715
-20.993546 3.328547 -7.3781166 11.028
-20.514297 3.3346872 -7.5050621 11.026751
-8.820549 3.4425659 -7.454474 12.666667
-8.7507906 3.4131007 -7.486742 13.627874
14.224115 3.3047929 -7.4714794 11.167
15.129263 3.5582922 -7.5469761 13.1545
15.42506 3.3452654 -7.5701337 12.654249
17.456764 3.3198066 -7.3164296 11.1615
19.65357 3.4684865 -7.5567236 12.1515
20.829962 3.5291145 -7.5470004 12.1455
31.133848 3.2478998 -7.4630628 10.154
-20.542736 3.7717385 -7.4912462 11.823001
-17.158138 3.7014012 -7.3236055 12.02625
-8.8255043 3.7079062 -7.5357256 12.4
-8.7460709 3.7199516 -7.517035 13.170083
12.590279 3.8190491 -7.2383804 12.1665
15.637341 3.6326184 -7.4723558 13.154
19.211805 3.9884148 -7.4858465 11.1655
19.659748 3.9909792 -7.3702092 12.1565
-163.59543 4.0962763 -7.2085695 8.0780001
-20.844479 4.2192607 -7.4980221 12.0285
-11.66203 4.2008905 -7.4289398 14.0215
-10.106626 4.2792549 -7.5638199 12.017
12.686667 4.0766521 -7.4078279 13.908937
12.947191 4.1117287 -7.2501264 13.163
14.938367 4.0206771 -7.3515244 14.1515
-104.21381 4.613378 -7.3385291 10.898857
-20.993559 4.6120181 -7.4510217 13.032001
-20.423904 4.6881218 -7.2902565 13.03
-20.366859 4.604125 -7.2285137 11.017
17.144876 4.5706229 -7.416245 13.158668
-104.00227 5.1547356 -7.5079842 10.0695
-90.405891 5.1524787 -7.5763197 12.032
-20.297176 4.9897141 -7.3009076 14.035
-9.7456312 5.1264348 -7.2627525 13.0165
-9.1492119 4.9695954 -7.4829874 15.017
-8.732275 4.9599266 -7.4756947 14.0155
-8.2226028 5.0582361 -7.4587946 13.51425
13.612324 5.1617594 -7.4980526 11.178
14.838434 4.8764462 -7.4839287 12.1695
15.497931 5.1088753 -7.2981777 11.176
-109.1087 5.4321227 -7.4776464 12.040168
-104.46151 5.3077197 -7.5919437 10.07
-104.18442 5.3214378 -7.3513732 11.53875
-90.519463 5.4381075 -7.4080114 12.0265
-88.213631 5.3732224 -7.4234691 11.714833
-21.433537 5.3115053 -7.38871 14.03425
-18.386728 5.3164034 -7.3299255 15.034
-7.2660031 5.2874012 -7.5123978 14.0135
-6.8780465 5.301918 -7.4829102 14.013
-6.495543 5.31814 -7.455883 14.0125
-4.102417 5.325964 -7.5368233 15.009
-3.7816772 5.3215561 -7.4410496 15.0085
13.493677 5.3785472 -7.5353708 13.169
13.939857 5.4833064 -7.420033 15.1605
14.147591 5.3980551 -7.3897495 13.168249
15.398407 5.4644217 -7.5764332 15.157
16.397699 5.2710032 -7.5628347 13.164
16.574123 5.3374071 -7.266983 11.176001
-110.45081 5.8194065 -7.4312325 13.0425
-110.28978 5.8289008 -7.428061 12.8412
-91.794189 5.8231936 -7.3502817 13.0485
-91.421234 5.9403934 -7.4773064 13.0305
-90.808937 5.8374476 -7.4684038 13.0325
-90.641129 5.8126907 -7.3039961 12.527
-90.188858 5.7222185 -7.4810362 12.834799
-89.903114 5.7591248 -7.3807936 12.02225
-88.037247 5.7798491 -7.2943196 13.033
-87.837379 5.6226659 -7.3313093 12.0235
-87.447029 5.6451015 -7.2084551 12.023
-20.474689 5.9355845 -7.2119365 15.0345
-14.09172 5.9638209 -7.4146271 15.0225
-12.034529 5.8816662 -7.5271244 13.0165
-8.8180304 5.8232212 -7.4140391 14.015166
-8.7350893 5.7050467 -7.3898735 15.0155
-8.010253 5.8172393 -7.3240452 14.0145
14.718912 5.6502576 -7.5691948 14.66175
15.315328 5.7979212 -7.2879534 11.6765
15.708561 5.7928982 -7.3630877 13.168751
16.474489 5.8156157 -7.4730463 13.167
18.495659 5.6225042 -7.5470686 12.169
-133.45442 6.3076792 -7.4218874 11.0695
-132.96519 6.2951508 -7.4285812 11.872582
-113.42187 6.1747804 -7.4450207 14.0385
-94.714264 6.2391891 -7.4436388 11.0255
-91.286285 6.1365504 -7.5253954 13.0275
-88.188873 6.1779947 -7.4777946 12.018
-87.931587 6.0724068 -7.5340223 12.0195
-84.482544 6.0419245 -7.2360916 13.027
-22.003063 6.370595 -7.595541 13.021
-19.328342 6.2582092 -7.4300957 15.029
-18.801029 6.0781803 -7.5238228 14.0255
-18.566326 6.287631 -7.5120468 14.5255
-12.984744 6.0095062 -7.5051575 14.02
-8.7925873 6.370471 -7.4916458 13.0135
17.46456 6.3512707 -7.5437336 13.168
50.641262 6.1420603 -7.4076405 11.1415
-133.66512 6.7863526 -7.5527172 13.077
-133.04086 6.5121355 -7.4537268 13.280901
-132.08699 6.6110482 -7.4959798 10.073833
-131.85725 6.5623789 -7.5157275 12.594857
-131.48083 6.731678 -7.5120826 14
-114.27704 6.4926553 -7.4040322 15.040668
-113.49167 6.563683 -7.4562669 15.0405
-112.24647 6.5749407 -7.5431938 14.048
-109.48918 6.4480739 -7.5272427 14.018
-95.04026 6.4435835 -7.2500725 14.0355
-84.77903 6.4013319 -7.396554 14.036
-21.95755 6.5129275 -7.4233265 15.032
-21.239151 6.669744 -7.4111595 15.0305
-19.813271 6.765902 -7.3032703 15.0285
-12.910044 6.534132 -7.5782261 14.018
-8.8162403 6.5776024 -7.4790955 14.51525
-8.3469658 6.7538195 -7.3411503 14.014
-134.1048 7.1557226 -7.5867534 13.075
-133.90979 7.1627488 -7.3799362 14.417
-133.341 7.0564327 -7.513814 14.08
-131.83524 7.0871134 -7.4992843 13.647799
-131.4579 7.001545 -7.5782437 14.540501
-109.62091 7.0265031 -7.5533233 15
-109.55257 7.0415053 -7.5562358 15
-89.414833 7.1771784 -7.5163355 15.0365
-20.269802 6.8276191 -7.4781322 15.029
48.032211 6.9353819 -7.5405054 11.154
-134.49054 7.2656651 -7.4371538 11.0715
-133.90927 7.2026367 -7.5424857 15.089
-133.39401 7.3789492 -7.3714142 12.87585
-133.13339 7.3598161 -7.4761477 13.632001
-131.72421 7.4414625 -7.4368062 12.5195
-131.48225 7.3212433 -7.4971499 14
-112.9017 7.2545085 -7.4756737 15
-90.798965 7.4206486 -7.3548603 15.0295
-90.075394 7.3262672 -7.4702101 15.0315
-18.331135 7.5639729 -7.2315063 15.022
-10.997466 7.4787531 -7.2766514 15.0165
-9.4878235 7.4121366 -7.4011536 14.014
-8.8079786 7.4612713 -7.4919682 15.015
-7.9728489 7.3710575 -7.4237652 14.013
-163.11349 7.8603764 -7.2985644 10.0855
-134.19078 7.837182 -7.5016756 15.081
-133.38791 7.6313839 -7.2737994 13.575125
-131.76363 7.6090374 -7.3747387 12
-89.686302 7.8031254 -7.4487047 15.0255
63.732189 7.6756201 -7.3813572 11.1405
-143.65341 8.1039076 -7.2011805 13.093
-156.23418 8.7127342 -7.4556293 11.0825
-143.82889 8.427269 -7.3771181 11.0745
-132.15137 8.5462065 -7.5426831 11.57275
-131.82475 8.5918207 -7.5440311 12.358167
-6.6086235 8.7266455 -7.5545959 14.012
-158.15289 8.968194 -7.3731308 11.083
-132.34241 9.0964041 -7.5848055 13.07
-131.83339 8.8606682 -7.5175676 12
-93.467972 9.1444454 -7.2301583 14.019
-151.01755 9.8104944 -7.2057199 11.0765
-171.35187 10.62299 -7.2866044 11.089
54.563118 10.603981 -7.2359676 12.158
-167.54163 10.914452 -7.2693863 11.079
-146.72499 10.91791 -7.4980869 15.09
-151.48984 11.938032 -7.5916004 15.096
9.8941555 -2.4926157 -6.9342093 3
10.719404 -2.5275373 -7.1444683 2.5
10.849155 -2.5234537 -6.9411411 2.5
12.835702 -2.5652151 -7.0525007 3
-1.2319775 -2.1638999 -7.087039 2.5
-0.97000712 -2.2410929 -6.9833827 1.3333334
-0.57467645 -2.2445092 -6.9519749 1.3333334
-0.26464221 -2.2556078 -6.9764934 1.3333334
0.15088892 -2.21735 -6.8300004 3
1.3719087 -2.2708995 -6.9019508 0
1.7290671 -2.2754116 -6.8263016 0
2.9701991 -2.3282039 -7.1201563 2
3.3679199 -2.3274622 -6.9427462 2
4.596096 -2.312676 -6.9795837 2
10.267451 -2.1574018 -7.1605887 4
10.453286 -2.1498182 -6.9158654 4
13.423673 -2.2388725 -6.9320946 3.6666667
16.798056 -2.2420731 -6.944808 4
16.953276 -2.0709748 -6.9018083 5
18.551992 -2.1135287 -7.0331974 5
22.076153 -2.3745568 -6.8997922 5
22.663181 -2.3820176 -7.1171713 5
28.482193 -2.0126181 -6.9673443 6
-7.323163 -1.6263373 -7.0378518 3.75
-6.9769449 -1.6930513 -7.1040993 3
-6.6105447 -1.7052846 -6.8453379 3.5
-6.1635642 -1.7875561 -6.9679494 3.3333333
-5.8635497 -1.8159117 -7.0892944 3.5
-5.345099 -1.8985076 -6.9446602 2.6666667
-5.0406432 -1.926414 -7.0715485 3.5
-4.4261837 -1.907457 -6.8593426 4
-4.2296934 -1.9395903 -7.0208788 1
-3.9834719 -1.9303726 -6.9791546 4
-3.3660104 -1.9690057 -7.1008034 3.3333333
-3.0136075 -1.9879065 -6.9906874 2.5
-2.6767616 -1.990256 -6.8774033 1.5
-2.3975389 -1.9465169 -6.8698788 4
-1.8284941 -1.660223 -6.8535028 3
-1.4403936 -1.9044937 -6.9717593 1
5.1222835 -1.836141 -6.8976722 4
5.3498549 -1.7764726 -7.0811901 3.6666667
5.7023802 -1.6772523 -6.9727659 3
6.1861377 -1.6720814 -7.114356 4
28.232559 -1.8853223 -7.055522 6
28.551319 -1.7240595 -7.0847368 6
28.801853 -1.7609124 -6.8155408 6
-10.971912 -1.2555991 -7.0790343 5
-10.031605 -1.3937206 -6.9130621 5
-9.6545801 -1.3892682 -7.141489 5
-9.2056723 -1.3843681 -7.1717644 5
-9.0377369 -1.4149182 -7.0028057 4
-8.6402073 -1.4358904 -7.121314 4
-8.2442102 -1.4866167 -6.9663339 4
-7.785377 -1.566853 -7.0013385 4
16.924446 -1.3522199 -6.8546662 6
-16.913647 -0.90410137 -6.886364 6
-16.553604 -0.9190985 -7.0017118 6
-16.139772 -0.93282855 -7.1353993 6
-15.736093 -0.88889951 -7.0828967 6
-15.42333 -0.91145796 -7.0993237 6
-15.11746 -0.9725405 -6.966958 6
-11.083124 -1.197109 -6.974525 5
16.906301 -1.1839956 -6.9149952 6
-16.068363 -0.66455328 -7.0782356 7
-15.768614 -0.67422664 -7.1283612 7
-23.618587 -0.34326839 -7.0100393 7
-23.480299 -0.32941195 -7.1136475 7
16.769302 -0.3802225 -6.9557161 7
16.834402 -0.36046013 -6.862257 7
16.74544 0.37163094 -6.9648147 8
16.869995 0.31961191 -7.1353059 8
-86.929718 0.7856338 -6.9532061 6
-57.502251 0.77531028 -6.9310513 7
-56.802933 0.64876485 -6.8478227 7
-53.55587 0.54713702 -6.9298773 7
16.65798 0.50580353 -6.9296455 8.0550003
-50.825916 0.980721 -6.8894229 8.0365
16.898296 1.0529495 -6.991024 8.7744999
32.338669 1.0102856 -6.8541374 8.1619997
-120.95417 1.5897784 -7.0432692 6
-120.47433 1.5899448 -6.9031477 4
-120.07558 1.5483419 -6.888845 5.5
-119.66565 1.56212 -6.9092884 4.5
-119.31034 1.5451555 -6.9817791 4
-119.00489 1.5314765 -7.0325732 4.5
-118.74772 1.5528882 -6.9421406 3.5
-118.20105 1.4943606 -7.0641327 4.3333335
-117.78104 1.4760962 -7.0296125 4
-117.42534 1.4556915 -6.9286437 4.5
-117.10293 1.4411819 -7.0354528 4
-116.5874 1.5532832 -7.0217514 5
-116.00313 1.5099201 -7.1057758 6
-115.55864 1.5644557 -7.158206 5
-114.76776 1.5224633 -6.8919096 7
-113.92566 1.4894152 -6.9249077 5
-113.40083 1.4711938 -6.9656715 5
-113.14206 1.4696074 -6.9329386 5
-112.56374 1.484942 -7.1006889 5
-112.07662 1.4908211 -6.9323797 5
-111.73016 1.4421296 -7.1621885 5
-111.37108 1.4110827 -7.1026354 7
-111.13599 1.4171798 -6.8573694 5
-110.5461 1.3751746 -6.9855466 5
-110.16946 1.3825377 -6.9552069 5
-109.80876 1.4142622 -7.0745444 5
-109.41964 1.4042047 -6.9669809 5
-109.09319 1.4115915 -6.8217301 5
-108.64908 1.3823167 -6.8199124 5.3333335
-108.09374 1.3460195 -6.8282213 6
-107.82562 1.3208041 -7.0796938 6
-107.48637 1.3164403 -7.1410589 6
-107.13818 1.3142682 -7.1427512 6.5
-104.96684 1.4091568 -7.0219407 7.0304999
-104.63608 1.4860728 -6.9247618 6.375
-103.99496 1.3212131 -6.9563293 7
-103.28673 1.3237958 -6.9075394 7
-102.53835 1.5898939 -7.164866 6
-102.14532 1.4873352 -7.0206509 6.1666665
-101.90897 1.4587369 -7.0968251 6.1666665
-101.34554 1.5119606 -6.9194059 6.0714288
-100.99772 1.4603837 -6.9516973 6.6141
-100.69109 1.458957 -6.8995914 6.1111112
-100.18776 1.4421118 -6.9117184 6
-99.687462 1.4229325 -7.0911045 6
-99.425232 1.4196367 -7.1583738 6
-98.471603 1.2009668 -6.9021778 6
-96.62455 1.301329 -6.9262958 6
-52.933056 1.3486277 -6.8122206 8.0214996
-50.929939 1.514087 -7.0228577 8.0159998
16.392868 1.4469508 -7.1035132 9.1619997
16.593111 1.2875735 -7.1991577 8.0010004
16.936712 1.3343401 -7.1134167 8.1785002
-130.0023 1.9834948 -7.1908488 4
-129.62924 1.9726256 -7.0685759 6
-129.39221 1.9190521 -7.0510316 6
-129.04602 1.8144091 -6.9482732 4.3333335
-128.51917 1.7961311 -7.175189 4.5
-128.14488 1.7679827 -6.8490319 3
-127.81261 1.7613225 -6.967854 3
-127.33337 1.7565681 -7.0200806 4
-126.92371 1.7570887 -6.9990358 6
-125.41171 1.7613242 -6.8782797 4
-124.96538 1.7527559 -6.9741225 4
-124.53059 1.7420822 -7.0192266 4.6666665
-124.14682 1.7291338 -7.1434722 5
-123.92973 1.7277048 -7.17941 4
-122.58852 1.6941773 -6.9846439 6
-121.94032 1.6576531 -6.8586559 5
-121.32581 1.6272825 -6.9933286 4.6666665
-120.89122 1.6053538 -6.8604984 4
-119.90454 1.6254498 -7.1673684 3
-119.40133 1.6080626 -7.0555072 3
-116.73901 1.6100845 -7.1014366 4
-116.08272 1.6069386 -6.8007603 4
-115.88513 1.6472173 -7.0868964 4
-115.45589 1.6236531 -6.9590635 4
-104.85215 1.7467571 -6.9809303 6.4143
-104.70544 1.737332 -6.9305382 6.2222223
-103.53165 1.6645513 -7.1865602 6
-102.61872 1.6158197 -7.0358744 6
-101.71059 1.8647857 -7.1268311 7
-100.71713 1.8562989 -7.1066952 7
-100.37631 1.8629255 -6.9751415 7
-52.7976 1.8823949 -6.8113403 9.0360003
-50.82412 1.6299043 -6.8763714 9.0419998
-2.7301502 1.9583433 -6.8052139 9
16.868166 1.6023306 -6.9164448 10.1495
18.336704 1.7237976 -6.9038773 10.1515
20.040787 1.8545021 -6.8627577 10.147751
-140.12265 2.3706937 -6.8771324 7
-139.23901 2.3382339 -6.9196701 6
-137.55557 2.2109149 -7.0334911 7
-136.64595 2.297353 -7.0648689 6
-136.39317 2.2102189 -7.0773315 7
-135.80286 2.2402289 -6.9962187 6
-135.06088 2.2081635 -6.9301887 5
-133.33942 2.1344256 -7.0710359 6
-132.55125 2.1239927 -6.887126 5
-132.21538 2.1146226 -7.0693355 5
-131.38809 2.055028 -6.9409733 6
-131.0089 2.0511379 -7.0605431 6
-130.55913 2.0297575 -6.9453077 5
-130.37498 2.0002227 -6.9640412 4
-104.85974 2.2914333 -7.0295343 7.2142997
-104.65081 2.2419877 -6.9931421 7.3014259
-101.31734 2.1276281 -7.1353693 8.0675001
-100.85479 2.2179606 -7.0190582 8.0612507
-100.05185 2.1048508 -6.9048147 8.0670004
-99.830681 2.117382 -6.9718208 7.8879166
-99.513397 2.2515643 -6.8804312 8.0574999
-99.087166 2.1514962 -6.9235268 8.0630007
-98.495392 2.1483006 -7.0896435 8.0629997
-97.800056 2.1246738 -6.9578152 8.0594997
-28.920004 2.2247005 -6.9242649 9.0170002
-2.7102108 2.0072091 -6.8199825 9
13.700762 2.2637334 -7.1150975 10.66175
16.316423 2.286756 -7.068922 11.153
16.409769 2.2406311 -7.0576773 11.15
-147.50481 2.5710521 -6.8649931 7
-146.17389 2.5637491 -6.9917231 7
-144.74359 2.5627661 -7.0253878 7
-143.28693 2.5240552 -6.955894 6
-142.01173 2.437957 -7.0632725 7
-141.44991 2.4129777 -6.8191261 6
-140.86731 2.4186962 -6.9303761 6
-140.42084 2.4146299 -7.1035156 6
-104.91137 2.5017052 -7.0102868 7.52525
-104.65678 2.5632911 -6.9770088 7.7163215
-52.263729 2.6067841 -7.0734119 10.0435
-20.983246 2.4276657 -7.1693211 10.028
-9.2743311 2.7228987 -6.8784733 12.52
13.385448 2.6378436 -7.1467581 11.659
19.822662 2.6417458 -7.0795841 10.820167
20.092836 2.6222944 -6.885745 11.145
-104.8309 3.1005583 -7.0389481 8
-104.68407 2.995436 -6.9472198 8
-9.3055687 3.0048418 -6.8658161 14.358167
15.971287 2.9376297 -6.8771896 12.153
16.21768 2.8821802 -6.9595881 12.15
17.056141 2.9839585 -6.9597831 10.828
20.191902 3.0313721 -6.9808216 10.66025
-104.53152 3.373656 -6.9657826 8.9333334
-26.686716 3.3773293 -6.8689499 11.03775
-12.234617 3.5257659 -6.894948 14.0275
-10.939515 3.4030106 -6.8259244 14.025
-9.3280306 3.3554132 -6.9276204 14.69
15.504541 3.2254648 -6.9951673 11.66025
16.887566 3.2138233 -6.9548054 10.171
-104.52578 3.8423829 -6.9448862 9.4047003
-104.31747 3.9395349 -6.9446373 10
-29.328144 3.7270732 -7.0202541 11.025
-28.009403 3.9368763 -7.0651131 11.0225
-12.127145 3.8644056 -6.8275757 11.016
-11.309791 3.7156825 -7.1227674 15.0275
-11.189285 3.6280613 -7.0136771 14.024
-9.4171972 3.9664898 -7.017406 15.021
12.733206 3.8534944 -7.0836015 14.155624
12.920094 3.7609227 -7.104835 12.828834
13.535505 3.6731377 -7.0158749 11.17
13.791601 3.9600546 -7.1809769 12.1655
15.798862 3.6342301 -7.176136 13.1535
17.292664 3.6477859 -6.9163985 13.1465
-157.73419 4.3545876 -6.8993931 8.0837498
-104.50242 4.1487331 -6.932178 10.009277
-104.29978 4.167428 -6.9978638 10.00975
-31.397467 4.3170805 -6.9047928 12.031833
-31.072048 4.080883 -6.9670329 11.03075
-29.491386 4.2854753 -6.8136997 12.0305
-29.190851 4.0626945 -6.8642082 11.0215
-27.631481 4.3422799 -6.8585873 12.0325
-27.44805 4.3791428 -6.9355087 11.863251
-27.154102 4.2493572 -7.1464653 12.037
-25.5243 4.1861067 -6.8338952 12.0385
-11.459348 4.08039 -7.1171365 15.0255
-9.4803581 4.0872955 -6.835165 13.0165
-7.7799377 4.3734035 -6.8873625 13.51425
12.748152 4.2625484 -6.861062 12.169
12.959981 4.2237716 -7.065372 13.495334
13.412539 4.2937164 -7.036315 15.15225
14.028814 4.3217435 -7.0293183 13.1615
14.530233 4.0630918 -6.802495 14.154
15.629408 4.1755271 -6.9796619 12.164
17.376205 4.2115679 -7.0537963 12.16125
-104.42365 4.4387255 -6.8302531 10
-104.26716 4.6321697 -6.8780007 10.735433
-31.193365 4.4307847 -6.85149 11.0195
-30.614325 4.4309902 -6.8366365 12.03675
-27.283154 4.4323912 -6.8262358 12.02925
-9.3426161 4.6305804 -7.0890098 14.51725
-7.9271803 4.5487971 -6.9618587 13.51475
15.586838 4.6612749 -6.8495998 14.156
15.71409 4.5079837 -6.9642043 13.1605
17.579323 4.625443 -7.070116 12.1645
-186.63391 5.1670575 -6.8920803 8.0819998
-104.28029 5.0237594 -6.9018917 11.111111
-89.076599 4.9669261 -6.925921 11.700333
-88.752411 4.9149332 -7.174058 12.04
-31.337593 4.9587231 -6.8339462 12.024
-30.097809 4.9134626 -6.8375225 12.024
-10.60728 4.8747315 -6.9429951 12.015
-9.361414 4.8131952 -6.9144688 13.016
-3.5997033 5.1273432 -7.0820961 14.0085
13.820326 5.0307875 -6.9153547 15.1575
14.0228 5.0538464 -7.1665702 14.162
15.127614 4.891325 -6.9460607 14.159
16.002857 4.9826193 -6.9539185 12.1685
17.716408 4.8175511 -6.8157916 13.159
-104.27616 5.2375803 -6.8798909 11.833333
-87.853432 5.4917173 -6.929142 11.016
-87.173203 5.4392757 -7.0891628 12.025
-18.557167 5.4180684 -7.1482611 14.53075
-17.508118 5.336668 -7.1490993 14.529249
-10.903736 5.3234024 -6.9908562 12.0145
-4.8096752 5.3912401 -7.1351147 12.0105
-3.5046921 5.2697406 -7.1500645 15.008
-157.61636 5.842617 -7.0112863 9.0845003
-113.58227 5.8778687 -7.049305 13.048
-108.80093 5.9652243 -7.0585713 13.032
-108.75838 5.8595967 -7.0965805 13.0345
-104.46341 5.7604561 -6.8232679 12.2665
-98.923157 5.8459282 -7.0768633 12.297376
-90.547844 5.6313295 -6.839406 13.038
-89.876648 5.6416807 -6.8700972 13.037
-89.450905 5.6456242 -7.0099921 12.7005
-88.989296 5.7515936 -7.0504665 13.03275
-88.448288 5.7973762 -6.9894543 13.032
-87.371178 5.7981567 -7.0595307 12.7015
-84.133698 5.6294332 -7.0288839 13.035
-83.536598 5.9684978 -6.8076735 12.019
-32.529228 5.9706912 -6.9168835 13.025
14.807015 5.634788 -7.1746783 15.1595
16.086628 5.9004574 -6.8525505 11.179
-110.51874 6.3497882 -7.150322 14.038001
-20.602129 6.0196114 -7.0629921 15.033
-5.145443 6.334784 -6.8556652 12.011
16.130573 6.0529966 -7.0815334 11.1795
19.089014 6.2052698 -6.8020515 11.1775
-110.45503 6.5108347 -7.0889034 14.035
-108.80744 6.418149 -6.9803514 14.0345
-108.77435 6.4604053 -6.8733931 14.033
-104.72076 6.4149036 -6.8010511 14.0445
-89.074371 6.7573061 -6.9456568 13.02
-88.63707 6.4753456 -7.0204487 14.032249
-87.79921 6.4966626 -6.8359833 14.031
-27.658558 6.5975189 -7.0033922 14.039
-21.900669 6.7604508 -6.8293152 15.0305
-20.584232 6.717567 -6.9527397 15.0295
-19.835472 6.7631617 -7.1745491 15.028
-113.95065 7.0164881 -6.8618174 14.0555
-110.83921 6.8490982 -6.9164658 15.0365
-89.39502 7.0209661 -7.1853399 14.025
-19.938358 6.8281088 -7.1025562 15.0275
-10.455173 7.1551418 -6.8346386 15.0165
-9.617651 7.1017227 -6.9470253 13.0135
-9.5586681 7.0334821 -7.0302582 15.016
48.905914 7.0295157 -6.8054028 11.1535
-157.26266 7.3093634 -6.9728861 10.08375
-133.48383 7.359498 -7.0141335 14.0775
-93.30291 7.2780433 -7.0595694 15.048
-18.320854 7.3894806 -7.1575756 15.0225
-9.988821 7.4843326 -6.9304199 14.014
50.578495 7.2970328 -6.9042034 11.155
-133.48015 7.8108931 -7.0332813 11.073
-94.196892 7.9840569 -6.8098073 13.019
-11.490605 7.6735125 -6.8083763 15.016
-8.4520664 7.7429657 -7.1546593 15.014
55.921654 7.7810364 -6.9478593 11.151
-143.98315 8.2378159 -6.9931831 12.079
-10.438326 8.3008862 -7.001009 14.014
-10.353794 8.3564234 -6.994503 15.0145
-144.72452 8.6144676 -7.020112 11.075
-10.876873 8.7070599 -6.820261 15.0145
-10.778559 8.6608877 -6.9846115 15.0145
-156.94215 8.9768047 -6.8262024 11.0815
-145.02623 9.0045958 -6.8248453 12.0755
-6.5128288 8.9253817 -6.995472 15.0115
-161.2198 9.2910385 -6.8358541 11.0855
-143.45067 9.2433872 -6.8011894 13.079
-10.324293 9.2810888 -7.1940212 15.014
-9.9155159 9.3273592 -6.9981956 14.013
54.42514 9.3438063 -6.833262 12.1495
-158.5858 9.8327217 -7.1407204 11.0775
-171.58133 10.265069 -6.9353685 11.1
-167.85715 10.783085 -6.90592 11.0795
-147.35498 10.570295 -7.0111055 13.0775
-146.69785 10.61931 -6.8191261 15.095
-146.28398 10.709679 -7.0222783 14.0815
-9.6612663 10.740812 -7.015152 15.013
-8.3715096 10.619906 -7.0717354 15.0125
10.159203 -2.4874237 -6.6213465 3
10.965741 -2.510098 -6.6573362 2.5
12.9408 -2.5128367 -6.6077385 3.75
-2.5558467 -2.0028379 -6.541275 4
-1.2744529 -2.2310853 -6.6523314 1.5
-0.93498397 -2.2224672 -6.5155015 2
-0.52931595 -2.2308791 -6.4947457 2
-0.18457031 -2.2391577 -6.4726567 2
0.63345218 -2.2702065 -6.710463 0.5
0.95584846 -2.2699757 -6.6463962 0.5
1.3683906 -2.2832079 -6.5402451 1
1.7802483 -2.2621851 -6.4393711 2
2.1544418 -2.266562 -6.5585642 1.5
2.5190947 -2.286083 -6.602025 0
2.9177387 -2.2974238 -6.480947 0
3.4145107 -2.3232768 -6.5914536 5
3.7486253 -2.3286004 -6.7672529 2
4.1312947 -2.3334205 -6.5952826 2
4.5633459 -2.2002015 -6.597414 3.25
13.132228 -2.2601612 -6.5659075 4.5
13.381611 -2.0895145 -6.6120148 5
13.787838 -2.0796931 -6.6405478 4
16.607069 -2.3277652 -6.7998695 5
16.904552 -2.2404051 -6.6467261 4
17.486814 -2.0968986 -6.7201676 5
18.27951 -2.151999 -6.6917882 5
18.957298 -2.0933983 -6.6766472 5
19.929729 -2.2598391 -6.4872155 5
21.534969 -2.3962924 -6.7485099 5
21.803419 -2.3354762 -6.5708027 5
22.569328 -2.3481529 -6.5820093 5
23.436827 -2.3155258 -6.5220833 5
-7.5613384 -1.6068143 -6.591764 3
-7.0654311 -1.6393961 -6.5494094 4
-6.5620894 -1.7240371 -6.4863029 3.6666667
-6.2787848 -1.7730809 -6.5927911 2.75
-5.7156463 -1.8672663 -6.6427708 2.3333333
-5.4595137 -1.8951588 -6.6141338 4
-4.996902 -1.9444907 -6.5421066 2.5
-4.5231404 -1.9171968 -6.7336364 1
-4.2518978 -1.9209825 -6.5137458 2.3333333
-3.8353715 -1.9451336 -6.5583076 3.2
-3.4058952 -1.9639128 -6.5365582 2
-3.0456071 -1.9817667 -6.6298656 2.5
-2.5785062 -1.8838321 -6.5421348 1.6666666
-2.2599494 -1.7170601 -6.6338024 2.5
-1.7937799 -1.7635121 -6.6058521 2.8888888
-1.4629114 -1.9393027 -6.6179519 2
4.7289777 -1.9429064 -6.5612631 3
4.9884596 -1.8932689 -6.6925068 2
5.3510394 -1.6712343 -6.5479407 2.6666667
6.3139296 -1.7699245 -6.4358072 2
28.207254 -1.7861533 -6.4959316 6
28.751234 -1.7542007 -6.7687578 6
29.010639 -1.8062268 -6.5776591 6
29.31234 -1.7765887 -6.504108 6
-10.910007 -1.2053826 -6.6901937 5
-10.433508 -1.3308688 -6.4320917 5
-10.167429 -1.402817 -6.6122413 5
-9.6629438 -1.44012 -6.6132455 4.5
-9.4223394 -1.4423091 -6.6877508 4
-9.0947933 -1.4391602 -6.776494 4
-8.5610504 -1.4574975 -6.6040187 4
-7.9101753 -1.556011 -6.6469684 4
5.6314406 -1.5992621 -6.449688 3
-17.590652 -0.848252 -6.7249775 6
-16.954359 -0.87538552 -6.5489063 6
-16.500959 -0.89344233 -6.5007114 6
-16.299561 -0.90592742 -6.5273857 6
-15.81712 -0.95972216 -6.6417923 6
-15.430971 -0.9748047 -6.7982788 6
-12.147912 -0.92689365 -6.4279089 6
-11.34262 -1.1570849 -6.7527952 5
-11.060916 -1.1601022 -6.5179968 5
-2.3261909 -1.0437219 -6.4299679 6.5
65.654213 -1.159164 -6.5437031 7
-12.082268 -0.73437047 -6.4363637 6.1666665
-24.082388 -0.35138255 -6.7606211 7
-23.848524 -0.31999749 -6.4276943 7
-12.103195 -0.18274748 -6.4277916 7
-12.070145 0.33902609 -6.4456334 8.0045004
-2.8370028 0.38026106 -6.5481105 8.5
-2.6356983 0.37888047 -6.62326 8.1428576
-2.2713521 0.37270546 -6.4268579 8
-1.8857946 0.39999971 -6.4021482 8
31.3622 0.33982101 -6.6796322 8.1464996
-54.097961 0.6780144 -6.5701799 7
-53.789276 0.51466537 -6.6619287 7
-53.098106 0.50607586 -6.4149952 7
-2.8635583 0.62464797 -6.5385923 9.077692
-2.6420097 0.60666233 -6.6112342 8.2712498
-2.2895553 0.62727445 -6.5307922 8.001111
31.570068 0.53281116 -6.6905851 8.1490002
-97.085594 1.1382041 -6.5193567 6
-90.154327 0.91910434 -6.4386053 6
-88.432617 0.86511087 -6.588872 6
-52.848473 0.99738997 -6.7352629 8.0352497
-52.552349 0.99251884 -6.6766071 8.0340624
-52.220753 0.96081221 -6.6101131 8.0351248
-51.974716 1.0111865 -6.5374217 8.0334997
-12.041101 0.8319993 -6.4545412 9
-2.8652341 1.0525897 -6.5432243 10.316668
-2.6366146 0.95222652 -6.6113358 8.8306227
-2.284894 0.92992306 -6.5299406 8.454545
-1.8067154 0.96372771 -6.4259028 8.333333
30.937647 0.83333641 -6.6185098 8.1587496
31.5812 0.83745599 -6.4946961 8.1044998
32.467621 0.97959065 -6.6297178 8.1617498
-120.45891 1.5987396 -6.5716858 5
-120.08189 1.5837319 -6.7085142 5
-119.60204 1.4940429 -6.7107277 6
-118.20741 1.5303073 -6.6118221 4
-117.79442 1.4979892 -6.5860243 4.25
-117.4092 1.4998111 -6.4943967 3.5
-116.96788 1.5403367 -6.5064754 4
-116.43514 1.5678499 -6.6383867 5
-115.83022 1.5850992 -6.6095047 4.5
-115.41079 1.5507196 -6.6515718 5.6666665
-114.91223 1.5501813 -6.5859976 4.5
-114.70467 1.5942864 -6.6310496 4
-114.18346 1.538467 -6.4570808 5
-113.71846 1.5106628 -6.4974165 5.5
-113.33265 1.5463535 -6.4490099 6
-113.00943 1.5393968 -6.5528879 6
-112.61314 1.5246701 -6.594511 5.5
-112.0388 1.5171039 -6.4016075 5
-111.80673 1.5028565 -6.6046581 6
-111.57717 1.452759 -6.5464792 7
-111.17641 1.4134521 -6.5937157 5
-110.15944 1.3693166 -6.668582 5
-109.82163 1.3543583 -6.6010623 6
-109.43354 1.3703294 -6.480279 6
-109.05586 1.3597977 -6.6897383 5.1999998
-108.65432 1.3775474 -6.6885343 5
-108.19876 1.367529 -6.5974689 5
-107.84475 1.327664 -6.6006966 5
-107.44473 1.2979957 -6.536551 5
-106.98219 1.285198 -6.450346 5
-101.97658 1.2527916 -6.6798859 6
-101.12904 1.5212407 -6.5977492 6
-100.62419 1.5181441 -6.7832317 6
-100.11625 1.4704288 -6.6309013 6
-99.82605 1.4907659 -6.56458 6.5
-99.230057 1.4282577 -6.5531955 7
-98.970322 1.4019661 -6.5589738 6.1999998
-98.627274 1.3942721 -6.4562759 6.4000001
-98.213295 1.3437719 -6.5746942 6
-97.756851 1.2061608 -6.4121962 7
-97.267326 1.3589821 -6.400692 6
-95.279854 1.2565205 -6.5536995 6
-52.920654 1.3143228 -6.7717557 8.0225
-52.355247 1.4448738 -6.5767918 8.0179996
-50.876251 1.4431772 -6.6735334 8.5342503
-2.8499005 1.3925803 -6.5315766 11.555555
-2.6363087 1.4125918 -6.6295114 10.066667
-2.317986 1.4460098 -6.5412831 9.5009165
-1.8335081 1.5048679 -6.4128914 9.666667
16.865236 1.5162565 -6.7248135 9.1630001
31.519058 1.3711071 -6.4665337 8.1684999
-130.04997 1.9613158 -6.6974502 6
-129.75778 1.9447315 -6.6743116 5
-129.43571 1.8952595 -6.7368908 5.3333335
-129.02664 1.7929977 -6.4900284 5
-128.72871 1.7773073 -6.6271043 3
-128.38742 1.7800045 -6.747303 4.5
-127.71504 1.769749 -6.7004061 6
-127.21016 1.7892954 -6.4030962 4
-126.90285 1.7874892 -6.4820299 4
-126.55048 1.7824504 -6.5809021 4
-126.02934 1.783093 -6.4426351 5
-125.90355 1.7709744 -6.7564611 4
-125.51781 1.771317 -6.6285396 5
-125.1358 1.7627113 -6.7588201 5
-123.35089 1.730544 -6.4962597 6
-123.03967 1.7168754 -6.6867685 6
-122.64304 1.6873614 -6.5415673 4.6666665
-122.22128 1.6683912 -6.5823798 3.6666667
-121.74589 1.6436014 -6.6010861 4.3333335
-121.38127 1.6357958 -6.6329961 4
-120.82934 1.6248987 -6.4449196 4
-120.30015 1.6128271 -6.4490519 3
-119.9612 1.6032882 -6.4027023 3
-116.61429 1.6149334 -6.5121775 4
-114.93276 1.6001248 -6.754931 4
-104.66927 1.7706254 -6.7822704 6
-99.96579 1.9688499 -6.4397526 8.0705004
-99.199913 1.9143026 -6.6793404 8.0699997
-98.590378 1.9502255 -6.6472912 8.0695
-98.040909 1.9858415 -6.5786591 8.0690002
-52.505928 1.8445851 -6.6978698 9.0372
-52.220314 1.757024 -6.6575265 9.0391998
-51.954147 1.9075258 -6.5775604 9.0342503
-50.875961 1.6920849 -6.623457 9.0412502
-2.8489697 1.7755852 -6.5726008 12.541667
-2.6310327 1.8263074 -6.629631 10.654942
-2.2631004 1.8308839 -6.5146661 10.375
-1.7705187 1.8790002 -6.4207835 9.666667
13.257122 1.8696465 -6.6916847 11.1505
16.897339 1.6033621 -6.7710347 10.1465
20.037683 1.7963656 -6.6800814 9.1645002
-140.94621 2.3916695 -6.5796757 7
-139.86775 2.34606 -6.6550694 6
-139.14632 2.2495217 -6.4458294 7
-138.59009 2.2978578 -6.5622578 6
-138.33174 2.2302792 -6.7407608 7
-137.54774 2.2335746 -6.6418633 6
-137.06624 2.2320476 -6.7796388 6
-135.17619 2.2299185 -6.6955552 5
-134.50197 2.1844292 -6.5408278 7
-134.31943 2.170382 -6.4754729 6
-133.80177 2.1668286 -6.698679 6.5
-133.40688 2.1100459 -6.6026611 6.5
-132.92844 2.1275928 -6.7281609 5
-132.42477 2.0843983 -6.4082193 6
-132.05777 2.0768566 -6.5714827 6
-131.71582 2.0673749 -6.7451506 6
-131.34338 2.0557082 -6.5167322 5
-131.00531 2.0406075 -6.6005316 4.5
-130.64876 2.0218816 -6.730391 4
-99.550766 2.1999345 -6.60496 8.0340004
-98.182098 2.0407889 -6.5594673 8.0678329
-97.68206 2.0633743 -6.5050502 8.0655003
-96.953659 2.1258647 -6.5457096 8.059
-96.425041 2.113616 -6.5507793 8.0585003
-52.721046 2.080343 -6.7264595 9.02775
-52.222481 2.0870166 -6.6429949 9.0272503
-2.8413332 2.1026037 -6.5691895 13
-2.5924962 2.0827215 -6.6151247 11.454545
-2.1952996 2.08653 -6.4497895 11.25
-1.8101339 2.1071713 -6.4259357 10.666667
13.659761 2.0026777 -6.616827 11.1545
16.954836 2.2431431 -6.4491382 11.146
-143.7926 2.5460443 -6.5397968 6
-142.37004 2.4728134 -6.5483923 7
-141.74969 2.4288507 -6.5543966 6
-104.64916 2.4743893 -6.789834 7
-28.896164 2.6013181 -6.7242093 10.0385
-28.702497 2.4544096 -6.5312538 10.039
-11.9823 2.7650208 -6.6887684 13.029
-9.2724361 2.654036 -6.7203908 11.016251
-2.2091839 2.6934066 -6.4817982 12.0055
13.924364 2.6427693 -6.42978 12.154
14.060831 2.69943 -6.6756248 10.1695
16.968788 2.6424906 -6.705452 10.4955
19.953949 2.6680312 -6.4406776 10.161
-104.60046 3.1852732 -6.7588172 8
-17.040939 3.0525997 -6.6681499 12.032499
-12.321685 2.8766735 -6.7758789 13.0285
-11.686306 2.8420193 -6.6338754 12.5245
-11.400607 3.10882 -6.5895162 13.358917
-11.171158 2.9239888 -6.4312353 12.0205
-2.1647034 2.9342883 -6.5269232 12.001375
17.16572 3.0882082 -6.7335978 12.152
-163.47366 3.4121363 -6.5828557 7
-26.646427 3.3962486 -6.7143912 11.039
-12.327704 3.3386981 -6.644825 14.0295
-11.702796 3.3135366 -6.6635895 13.0235
-11.440729 3.3905251 -6.691577 13.2237
-11.012203 3.3384647 -6.7087517 13.273624
-2.2009661 3.283596 -6.5169525 13.0055
13.510057 3.3900399 -6.7658973 12.162
14.053152 3.4084237 -6.6247177 10.175
15.264947 3.3521619 -6.5892386 12.1585
16.10413 3.358053 -6.6696444 12.15675
16.66946 3.5374267 -6.5822749 12.1575
-104.44979 3.9128058 -6.7677345 9
-31.189985 3.9670997 -6.6366501 11.0405
-26.643215 3.9124045 -6.4768448 11.022
-18.637068 3.6474295 -6.7579441 12.0285
-18.197845 3.8159037 -6.6734428 13.0345
-12.587248 3.8145797 -6.4636655 14.0255
-11.823179 3.8897977 -6.6097302 15.02775
-10.225986 3.9234481 -6.572547 13.01825
-2.1969247 3.8769739 -6.5210257 14.0055
13.816972 3.901098 -6.6668959 11.171
14.572408 3.9726059 -6.6219168 11.1705
16.327936 3.9203997 -6.5264282 11.168
17.232273 3.8515055 -6.5126729 12.159
29.614716 3.9864724 -6.6929693 11.1495
31.726198 3.6740646 -6.7024555 10.1585
-31.134605 4.3172731 -6.6202297 12.0315
-29.679329 4.3716798 -6.5260773 12.03325
-29.485043 4.2774835 -6.7097836 12.031
-29.010185 4.2469287 -6.6291466 12.03325
-28.778831 4.2353916 -6.6052914 12.0345
-27.89209 4.2482595 -6.6983967 11.52575
-25.747351 4.1419077 -6.5474634 12.0375
-25.479792 4.168663 -6.5285463 12.038
-20.186155 4.1871839 -6.5412979 12.025
-19.496681 4.3411255 -6.700068 13.03075
-18.397358 4.2297277 -6.4908333 12.023
-17.305141 4.3709855 -6.4998198 14.033751
-13.251629 4.3225908 -6.7524095 15.0285
-13.045918 4.2066011 -6.5715408 11.768375
-12.709828 4.1204963 -6.5812416 12.0195
-11.788645 4.2988482 -6.6362305 14.52275
-10.754166 4.2076178 -6.4360733 13.018
-9.8413982 4.0360031 -6.5484161 13.017
-9.4982052 4.2169814 -6.5534453 12.766
-2.745801 4.3494663 -6.5989342 12.0085
-2.319212 4.0652428 -6.4942837 12.0075
12.761905 4.3582339 -6.7435427 14.159875
12.945076 4.2499785 -6.5458961 13.827167
13.437454 4.1570945 -6.599894 14.404875
13.748884 4.2201571 -6.5808272 11.67025
14.098685 4.1991191 -6.4709139 15.148
14.675459 4.1149673 -6.6168532 12.66275
15.453831 4.1934319 -6.6777673 11.667749
16.386028 4.2338462 -6.4234829 12.163
16.436386 4.2034845 -6.503438 13.652
-104.29484 4.5552135 -6.7383895 10.4117
-30.440601 4.446785 -6.7449741 12.0295
-28.274122 4.4117112 -6.7326622 12.032
-19.549435 4.4375405 -6.7654171 13.03
-17.261578 4.4538546 -6.4500804 14.0325
-11.347477 4.422955 -6.51721 15.0225
-10.672258 4.482275 -6.7345028 12.016
-8.2148838 4.5426388 -6.4896784 11.0125
-7.9346046 4.6411247 -6.7691669 11.0125
-3.3738728 4.665051 -6.6017323 11.342834
-3.0146034 4.4888797 -6.7440548 15.007
12.783926 4.4085832 -6.5434241 14.1605
13.708536 4.5232983 -6.7758355 13.1635
16.436623 4.7804651 -6.5526648 15.1465
17.664091 4.4961157 -6.5331821 14.1485
-104.235 4.8833313 -6.783061 11
-88.756256 5.12182 -6.6287203 11.0195
-31.051416 4.9715381 -6.603334 12.041
-19.915306 4.9765348 -6.7116318 13.0275
-17.787971 4.8959541 -6.6868973 14.029
-11.3808 4.9941587 -6.4722691 14.519501
-10.552367 5.0003405 -6.5340004 12.0145
-10.150401 5.0383954 -6.6261058 13.683833
-9.9902 5.0417423 -6.4755745 12.014
-8.5625973 5.1178994 -6.7990208 13.015
-1.7833757 5.1599684 -6.4432697 14.006
15.307436 5.0083208 -6.532186 13.6615
16.408575 5.0095425 -6.6060467 12.168
31.276196 4.8053179 -6.4281445 10.1685
-104.31871 5.3202224 -6.7546949 11.514625
-99.115059 5.4006066 -6.540545 11.394833
