# .PCD v0.7 - Point Cloud Data file format
VERSION 0.7
FIELDS x y z intensity
SIZE 4 4 4 4
TYPE F F F F
COUNT 1 1 1 1
WIDTH 95
HEIGHT 1
VIEWPOINT 0 0 0 1 0 0 0
POINTS 95
DATA ascii
-0.06962654 -0.00058093818 0.24952112 0
-0.53798288 0.075847626 1.466894 1
-1.1011069 0.11379459 2.6713755 2
-1.7281613 0.18379399 3.8484643 3
-2.4284887 0.2305221 4.9627013 4
-3.172564 0.29162565 6.1096654 5
-4.000618 0.34910867 7.2318587 6
-4.9010715 0.40942886 8.3676682 7
-5.8302178 0.45537701 9.4472179 8
-6.8109946 0.52051032 10.476995 9
-7.9355826 0.57497704 11.510883 10
-9.0753927 0.63272494 12.444816 11
-10.273101 0.69368052 13.368471 12
-11.597372 0.75059783 14.266342 13
-12.896927 0.80689877 15.039783 14
-14.232804 0.85489082 15.779484 15
-15.537745 0.90844697 16.410666 16
-16.855547 0.95195609 16.955307 17
-18.165905 1.0011909 17.434866 18
-19.401587 1.0367268 17.910393 19
-20.62645 1.0737569 18.300364 20
-21.812687 1.1239049 18.661404 21
-22.960659 1.155503 19.010326 22
-24.096249 1.1956931 19.319029 23
-25.207668 1.2427865 19.582207 24
-26.314146 1.2789413 19.835575 25
-27.478792 1.3109601 20.067148 26
-28.642818 1.3524609 20.232597 27
-29.858624 1.3839529 20.407345 28
-31.089502 1.4262925 20.540525 29
-32.338245 1.4554957 20.650497 30
-33.613445 1.4912099 20.740742 31
-34.900208 1.5257653 20.790987 32
-36.20966 1.5732197 20.844204 33
-37.558968 1.5995871 20.842358 34
-38.896381 1.6465118 20.82497 35
-40.226414 1.6753367 20.779655 36
-41.586121 1.7087343 20.707165 37
-42.923256 1.7471644 20.608459 38
-44.283833 1.7908088 20.497169 39
-45.627541 1.8235887 20.358822 40
-46.98064 1.8677441 20.211384 41
-48.358089 1.8939338 20.063709 42
-49.773521 1.945767 19.905083 43
-51.199356 1.9732279 19.724464 44
-52.631985 2.0399282 19.548016 45
-54.106712 2.0603418 19.326302 46
-55.620052 2.1030333 19.118799 47
-57.121586 2.1479263 18.904312 48
-58.74646 2.1885703 18.627783 49
-60.355473 2.2247756 18.347134 50
-62.01944 2.2685697 18.035019 51
-63.692356 2.3135185 17.7034 52
-65.415222 2.3642287 17.406855 53
-67.194763 2.4060032 17.062464 54
-68.996933 2.4616413 16.707623 55
-70.836411 2.513639 16.339067 56
-72.680855 2.5591948 15.969995 57
-74.565308 2.6052401 15.593512 58
-76.47934 2.660464 15.212002 59
-78.428612 2.7121353 14.84474 60
-80.414108 2.766082 14.46601 61
-82.414726 2.8246422 14.096426 62
-84.402435 2.8851531 13.728367 63
-86.422485 2.9372807 13.387795 64
-88.42231 2.9946361 13.043666 65
-90.462578 3.0551016 12.726962 66
-92.496376 3.1151831 12.386991 67
-94.535736 3.1775415 12.060425 68
-96.561783 3.2222431 11.726092 69
-98.617813 3.2855628 11.384619 70
-100.67759 3.3533909 11.032239 71
-102.72115 3.4082201 10.673785 72
-104.72929 3.4590023 10.354827 73
-106.67196 3.5267944 9.9972229 74
-108.52325 3.573035 9.616785 75
-110.28203 3.6251516 9.2582951 76
-112.00428 3.6866457 8.8683901 77
-113.60052 3.7341757 8.3985186 78
-115.07089 3.7723622 7.8711996 79
-116.51913 3.8056085 7.2860317 80
-117.89768 3.8380663 6.6122622 81
-119.26837 3.8516269 5.8839393 82
-120.55075 3.853487 5.0013275 83
-121.61446 3.8487549 3.9647474 84
-122.53223 3.8338253 2.8939667 85
-123.28928 3.8144462 1.7522502 86
-123.90115 3.8237729 0.6574496 87
-124.32137 3.8069773 -0.46477699 88
-124.64101 3.8487964 -1.5753446 89
-124.90208 3.8547194 -2.585073 90
-125.0828 3.8536043 -3.5746298 91
-125.2085 3.8489783 -4.5170431 92
-125.30849 3.8382709 -5.3591399 93
-125.38004 3.8221447 -6.2089958 94
