# .PCD v0.7 - Point Cloud Data file format
VERSION 0.7
FIELDS x y z
SIZE 4 4 4
TYPE F F F
COUNT 1 1 1
WIDTH 1559
HEIGHT 1
VIEWPOINT 0 0 0 1 0 0 0
POINTS 1559
DATA ascii
-47.174736 6.6803322 42.914268
-46.539463 6.6446133 42.862946
-45.358002 6.6578407 43.015831
-44.496899 6.5348597 42.989983
-44.221722 6.5335374 42.920197
-32.916161 6.4291816 42.975506
-31.449062 6.6299777 42.926426
-29.426247 6.425168 43.164665
-29.094299 6.6221247 43.034176
-27.90486 6.4401832 43.143066
-27.500469 6.4342132 43.175194
-109.42259 7.110424 42.909958
-98.145149 6.905899 43.061295
-97.220589 7.107233 43.101082
-94.045563 7.1427612 43.05777
-93.709473 7.1274629 42.973
-80.420044 6.9008951 43.012802
-70.380165 7.1144385 42.89933
-69.758339 6.876967 42.951328
-69.586044 6.9262609 43.050747
-47.31805 7.0633416 42.969501
-47.167099 7.1873589 42.964458
-46.626961 7.050868 42.920208
-46.31789 6.9544258 42.85144
-45.351543 6.9390669 43.012009
-45.08799 7.1994581 43.103325
-44.129601 6.806262 43.060822
-32.940071 7.1127553 42.865345
-32.720959 7.0727582 42.872356
-32.260464 7.0553503 42.802296
-31.923595 7.129458 42.842064
-31.439465 7.0350566 43.082611
-30.061131 7.0106988 42.811569
-28.989822 6.9945412 42.931377
-23.428329 6.947988 43.039795
-22.890259 7.1724949 43.181419
30.815067 7.0234365 43.160286
-135.92072 7.3767591 43.00206
-135.52188 7.4628377 42.962456
-112.21339 7.5550375 42.823654
-93.722366 7.3184276 42.81955
-79.913918 7.3442249 43.084503
-71.224228 7.2124653 42.972191
-70.978508 7.230689 42.925041
-70.547318 7.5703278 42.881332
-70.373001 7.5874696 42.889465
-45.324593 7.3380523 42.934727
-45.010315 7.4383078 42.961868
-44.61087 7.4016118 42.882366
-44.094757 7.3894567 42.958977
-43.91161 7.5871916 42.824436
-30.977663 7.4331541 43.037163
-29.336372 7.5985823 42.848503
-29.013674 7.2382035 43.025898
-27.159601 7.447175 42.920013
-24.632423 7.531764 42.911301
-23.778557 7.2632389 42.931637
-23.545006 7.2462835 42.939705
-22.969021 7.3949814 43.125809
-22.606476 7.4542465 43.01125
-22.262074 7.3375249 43.016216
-20.656178 7.4642935 43.100914
36.018955 7.2522488 42.959362
36.751171 7.2084031 43.092514
-118.83272 7.9523649 43.179714
-108.60421 7.6875548 43.155807
-70.888977 7.6877923 42.904343
-70.381012 7.807332 42.808285
-47.335445 7.6843653 42.868164
-47.105255 7.7449007 43.038464
-45.379913 7.7245908 42.820618
-44.495522 7.8180223 43.138977
-32.189438 7.9051809 42.964062
-31.863092 7.8312683 42.906658
-31.542076 7.6226993 42.953972
-29.724163 7.767488 42.874535
-29.431969 7.6540651 42.820335
-29.115517 7.7523804 42.826561
-28.057816 7.6083221 43.179863
-25.496519 7.8090615 42.998417
-24.565725 7.8250604 42.938202
-20.855312 7.8223 43.183956
-20.579922 7.7325606 43.1115
-20.345539 7.6449018 43.121628
-134.65321 8.387784 42.836861
-118.73021 8.0469656 42.839977
-118.30208 8.3143063 42.801315
-117.54565 8.2603683 43.099506
-47.091137 8.179656 42.905537
-45.128799 8.0943356 43.162346
-44.579395 8.3037653 42.898468
-32.036339 8.3744612 42.831596
-31.79339 8.0545969 42.976051
-31.043024 8.0269108 42.871731
-30.55759 8.1292114 43.144531
-30.253265 8.2022877 42.978058
-29.818726 8.2028704 42.943188
-29.452499 8.1575966 42.871643
-29.111406 8.3305235 43.167953
-26.798939 8.3621187 42.946426
-26.270771 8.0345917 43.045494
-25.957182 8.3533421 42.932789
-23.253563 8.2013683 43.073112
-23.089359 8.1122818 43.078041
-22.715302 8.279212 43.027195
-21.368179 8.0342503 43.110718
32.522053 8.0097132 43.079674
37.14505 8.284997 43.061581
-135.21933 8.5952759 43.191254
-134.90741 8.4954262 42.973492
-134.61998 8.4800692 42.977139
-118.42725 8.4082975 42.821415
-117.50678 8.7814579 43.121655
-116.94701 8.5806246 42.971188
-116.67992 8.7774544 43.117641
-46.606689 8.4224701 43.014999
-44.952072 8.5578318 43.113976
-31.351833 8.4156885 43.101562
-31.08568 8.448596 43.065865
-30.699486 8.5084028 42.972183
-29.392046 8.4670992 43.063156
-28.674128 8.4486065 43.102638
-28.320526 8.4668703 43.137566
-26.267605 8.6595583 42.971439
-25.150192 8.7698183 43.117722
-23.181479 8.544426 42.869408
31.940863 8.6702414 42.811604
39.357353 8.5329676 43.108955
-134.9637 8.8949413 43.041302
-133.97992 8.8707762 43.190216
-117.48367 8.8336716 42.9729
-116.95657 8.8608217 43.02055
-29.884819 8.8253326 42.855194
-27.2904 9.1948633 42.886284
-27.196527 8.8960047 42.916565
-26.034611 9.1365681 42.981979
-25.629646 9.0331087 42.967201
-24.145782 8.8455801 42.833618
-140.95116 9.3659735 42.876141
-140.7719 9.4710445 43.096703
-134.1162 9.4774313 42.957047
-133.80844 9.4394197 43.026062
-133.47708 9.4052525 43.142662
-44.937119 9.2298641 43.127563
-25.565441 9.5000095 43.070267
-134.70268 9.6543961 42.938881
-134.18146 9.7072639 43.01199
-133.78369 9.6406441 43.116417
-26.101511 9.8355379 43.16433
-142.13174 10.247233 42.945084
-141.37508 10.256039 42.868702
-140.86406 10.312548 42.970085
-140.472 10.078944 42.895149
-140.30859 10.046612 42.916985
-141.42073 10.644075 42.949287
-135.33215 10.48917 42.989567
-134.65839 10.776886 42.894096
-134.14256 10.522361 42.959633
-133.94275 10.527229 43.045223
-149.50169 11.114736 42.914982
-141.83847 11.139225 43.192986
-141.48526 10.836102 42.995438
-134.86552 11.167489 42.956638
-134.53345 10.903085 42.972244
-150.35672 11.559061 43.150261
-141.52863 11.397172 43.088829
-137.25685 11.514399 42.972847
-150.16173 11.69665 42.987812
-137.12009 11.735947 42.936703
-136.70227 11.932409 43.090828
-150.18457 12.149969 42.908165
-150.92067 12.636484 43.024628
-156.71159 13.525825 42.930496
-155.40672 13.421412 42.991035
-166.5325 13.9944 42.822487
-158.54794 13.712832 42.914322
-158.59436 14.079133 42.972836
-156.75427 14.242403 42.912468
-153.58258 14.259455 42.802914
-77.710182 1.9673212 43.507942
-76.217033 1.9527721 43.415272
-75.634109 1.9148602 43.314247
-72.440697 1.804304 43.452507
-72.017303 1.8253319 43.282784
-93.093697 2.3435304 43.309711
-91.40596 2.3813815 43.397076
-88.172241 2.3102376 43.459351
-87.933426 2.3411167 43.551613
-87.232498 2.2069383 43.318893
-85.00119 2.15446 43.298805
-82.532166 2.0842032 43.512794
-79.857132 2.0304003 43.372391
-71.028915 2.0594797 43.215691
-70.682487 2.2389531 43.225372
-35.180405 2.2623727 43.50103
-34.706478 2.3276339 43.298737
-103.11886 2.7894123 43.424103
-99.738548 2.6842074 43.212456
-99.41301 2.6907113 43.427052
-96.157806 2.5573812 43.211967
-95.7995 2.5659933 43.382706
-94.40239 2.4873443 43.434975
-93.968979 2.5006518 43.483196
-93.089821 2.7786102 43.598759
-87.912476 2.6745291 43.512611
-70.830925 2.7735569 43.350548
-70.71479 2.551971 43.250351
-35.155815 2.4136262 43.34568
-32.307236 2.401547 43.226875
-112.76685 3.1538682 43.513901
-111.74127 3.0334165 43.47686
-111.02559 3.0216022 43.554169
-110.46516 3.0722523 43.4785
-110.17884 3.0108061 43.369087
-108.36669 3.1110291 43.453354
-107.93519 3.0809715 43.444714
-107.41901 2.9696298 43.330673
-103.63769 2.853359 43.544075
-103.47009 2.8389244 43.306377
-93.332581 2.9792607 43.57008
-92.933067 2.9790821 43.57439
-88.482178 2.9067583 43.552425
-88.217636 2.8791161 43.524811
-71.214996 3.0234675 43.262093
-70.740379 3.0239868 43.229992
-37.183289 2.8416584 43.589714
-34.933804 2.9423623 43.246719
-123.3606 3.4119081 43.452377
-118.96843 3.3276634 43.450867
-117.47653 3.3715625 43.432262
-115.36542 3.2204864 43.372246
-107.78876 3.5050335 43.445343
-92.904518 3.4077282 43.559357
-88.341461 3.5479455 43.56554
-70.891556 3.231564 43.355568
-70.769188 3.3038003 43.229294
-45.630196 3.486855 43.205139
-45.500671 3.5964415 43.307728
-35.623272 3.481066 43.457123
-35.436234 3.4892581 43.357857
-134.63583 3.8769009 43.343399
-133.24593 3.6845136 43.410149
-132.53677 3.6541882 43.27346
-129.59546 3.6331394 43.322979
-117.14487 3.7481375 43.499371
-108.28297 3.8610902 43.344639
-107.84315 3.703614 43.384209
-93.264511 3.6682389 43.467999
-71.218292 3.871927 43.244381
-70.932823 3.7888777 43.343399
-70.771965 3.9131901 43.291473
-56.888298 3.800137 43.37738
-56.5811 3.6473489 43.403854
-45.677235 3.8352528 43.235733
-45.556225 3.7411931 43.218033
-35.661125 3.661669 43.462505
-35.288788 3.6022468 43.587059
-140.72943 4.2249918 43.527283
-107.75995 4.2532787 43.347008
-102.85258 4.1137834 43.510284
-93.329041 4.3743196 43.321674
-92.843796 4.2131357 43.363396
-88.309166 4.2222843 43.583019
-70.835236 4.1123748 43.258434
-70.758911 4.2308755 43.341114
-66.773857 4.1313262 43.425652
-59.20919 4.3435307 43.362511
-58.948563 4.3088379 43.342392
-58.561737 4.3324914 43.37764
-57.204906 4.2883344 43.402485
-56.86702 4.3028383 43.557152
-56.587173 4.2380123 43.369984
-45.8423 4.0806961 43.274158
-45.504398 4.2410736 43.289066
-25.820694 4.2972965 43.596825
-25.589977 4.1673689 43.585686
-108.28838 4.6195641 43.315678
-103.05377 4.7474971 43.49913
-93.040253 4.7612624 43.347878
-87.310127 4.7053733 43.451027
-77.751823 4.7907586 43.556297
-71.055168 4.766943 43.372322
-69.474197 4.6422753 43.266491
-66.92746 4.6637049 43.38805
-62.93856 4.4637909 43.296219
-60.547703 4.7295189 43.281986
-59.773869 4.5856333 43.209496
-59.443939 4.5190139 43.371445
-57.344868 4.4205408 43.452232
-57.075314 4.4166541 43.531784
-45.752148 4.7050934 43.302906
-45.535793 4.6197705 43.322418
-45.134731 4.6436896 43.444
-25.95726 4.4845114 43.571426
-158.56938 4.9379959 43.346756
-156.28708 4.9500432 43.383869
-153.97183 4.9571424 43.326424
-150.95212 5.1529355 43.519939
-108.05679 4.9834461 43.356529
-107.79127 4.9127531 43.248146
-102.94505 4.8741455 43.525589
-102.67207 5.0247107 43.442245
-92.853622 4.9366961 43.213608
-92.767792 4.9439597 43.324425
-86.288498 4.9453778 43.28598
-74.941887 5.1603355 43.269714
-70.895691 4.8385239 43.546303
-70.458878 4.8935041 43.225868
-70.281967 4.8034515 43.427933
-69.639969 4.99052 43.52906
-67.746361 5.0273747 43.311607
-65.764427 4.9587312 43.292221
-64.90213 4.8970318 43.556461
-61.487244 5.0180511 43.351913
-60.709019 5.1307487 43.246338
-59.122055 5.091836 43.323944
-58.533272 5.1485834 43.350845
-46.230743 4.9135246 43.469254
-45.739574 4.8686538 43.297352
-45.507164 4.9005952 43.265797
-26.030201 4.9767609 43.543781
-25.7876 4.9709048 43.466969
-25.549355 4.850842 43.582779
-24.899666 5.0325584 43.397003
-24.765791 5.0501251 43.419552
-163.3985 5.3324442 43.539589
-160.79904 5.2882361 43.428459
-159.35876 5.3880134 43.568058
-117.69601 5.4910965 43.426884
-117.47137 5.3145413 43.516918
-112.96091 5.3299847 43.366661
-108.1794 5.3453779 43.402878
-107.67461 5.270442 43.480072
-103.37102 5.2914104 43.398918
-103.11415 5.440033 43.292717
-102.59725 5.4310741 43.256409
-99.328316 5.258811 43.498577
-98.721039 5.4171104 43.341469
-98.206673 5.5609627 43.321007
-92.856316 5.3784237 43.542015
-88.19326 5.4797258 43.540718
-87.941811 5.3630447 43.496819
-87.053528 5.4896278 43.336529
-86.597519 5.4363146 43.299973
-85.729294 5.5423689 43.499756
-82.956825 5.3591065 43.260372
-77.287842 5.5754108 43.570889
-76.904175 5.5706744 43.479729
-70.959274 5.5624781 43.532753
-67.798134 5.5107651 43.214752
-65.656075 5.3596969 43.239185
-62.411709 5.279151 43.380398
-59.437428 5.2445927 43.371475
-57.133839 5.5246959 43.34647
-47.114002 5.376626 43.254616
-46.766003 5.3894525 43.38903
-46.176933 5.503943 43.415863
-45.939251 5.5085425 43.335236
-45.473763 5.3507323 43.279694
-26.29571 5.3720388 43.20311
-25.765182 5.4087448 43.500832
-24.949583 5.303915 43.260979
-24.556194 5.5346279 43.227036
-23.945553 5.5512142 43.387585
-117.40694 5.7788873 43.29834
-117.01759 5.7764878 43.362289
-108.12327 5.8896399 43.53344
-107.77573 5.6564341 43.563881
-104.68518 5.9343061 43.518883
-104.33008 5.8526158 43.431599
-103.15047 5.7558036 43.278046
-101.55888 5.9825521 43.531475
-99.292084 5.9709802 43.447701
-98.956314 5.6295352 43.467426
-92.941696 5.6965942 43.32515
-89.000145 5.7679901 43.278313
-78.190414 5.8955908 43.423477
-77.825684 5.8683105 43.402363
-76.847931 5.8948631 43.540035
-76.247444 5.7678986 43.293247
-75.638153 5.8521781 43.425842
-75.512939 5.876297 43.49107
-74.916428 5.8814125 43.433788
-74.206978 5.8993506 43.561684
-73.799179 5.6501789 43.340679
-69.406036 5.8044376 43.467274
-64.601791 5.760726 43.352837
-64.300667 5.9170275 43.271107
-63.810738 5.9434142 43.354622
-47.138664 5.953824 43.45681
-46.680073 5.963418 43.382545
-44.664005 5.7293072 43.385242
-32.8386 5.8616443 43.594727
-30.448515 5.9339747 43.32526
-30.296221 5.9376702 43.563477
-29.636318 5.6242676 43.579147
-29.487225 5.7831907 43.462074
-29.150978 5.709156 43.511028
-26.2103 5.7619171 43.278572
-25.793613 5.8132877 43.258881
-25.367603 5.7422066 43.271542
-117.43388 6.2045479 43.370098
-113.4295 6.0133605 43.515461
-108.48288 6.036736 43.567364
-107.06696 6.3221121 43.362167
-104.96585 6.0152111 43.35117
-98.601105 6.1125517 43.228703
-98.097137 6.0896072 43.533958
-92.697281 6.3974571 43.507824
-88.866096 6.2863398 43.481239
-87.91114 6.2184763 43.261204
-87.463692 6.232502 43.261497
-85.576996 6.2200937 43.307106
-84.947853 6.322237 43.402653
-84.439583 6.3640823 43.364052
-84.18705 6.1466007 43.342888
-83.342842 6.1750126 43.372955
-82.666618 6.2070761 43.35379
-82.246712 6.2022529 43.284134
-81.925385 6.182631 43.42487
-77.87999 6.0516481 43.569584
-73.693871 6.322989 43.309532
-73.366119 6.2717743 43.326447
-72.995506 6.3427181 43.354454
-71.174858 6.3060789 43.599663
-66.186203 6.0400391 43.350365
-64.828957 6.0936661 43.390717
-64.621246 6.2658143 43.547581
-63.861595 6.0045633 43.438026
-62.748413 6.3403168 43.550819
-47.571312 6.0897827 43.316727
-46.783096 6.0988598 43.354397
-45.420654 6.2679763 43.435165
-44.998291 6.1931319 43.332958
-44.659176 6.2242899 43.441891
-44.381336 6.0559478 43.268272
-33.35939 6.0989223 43.328266
-32.972256 6.1495023 43.445972
-32.662003 6.1286154 43.489098
-32.183308 6.1001263 43.461273
-31.833475 6.1550961 43.417591
-31.447945 6.1545415 43.224335
-31.063725 6.1135378 43.253109
-29.519016 6.0494514 43.515396
-27.740158 6.388329 43.235802
-26.619576 6.0327206 43.320244
-25.218655 6.1195917 43.216709
-116.45731 6.5332751 43.294701
-115.95745 6.5063467 43.208969
-104.46615 6.7599368 43.32653
-104.32397 6.7274542 43.226562
-98.993317 6.6293898 43.298702
-98.592163 6.7922831 43.201763
-98.283958 6.5758443 43.242302
-92.380714 6.7063017 43.481361
-83.236183 6.7668839 43.41663
-83.044464 6.7044487 43.36726
-82.326096 6.7264562 43.51125
-81.306297 6.6213818 43.35857
-80.990746 6.6219788 43.265747
-80.71212 6.6696091 43.209789
-77.977745 6.6654382 43.539448
-75.318367 6.4989023 43.306992
-73.728226 6.5470557 43.547798
-73.306107 6.5020046 43.393211
-67.702499 6.4022398 43.281082
-64.168625 6.7675724 43.572685
-63.782669 6.607203 43.361725
-47.005901 6.7389975 43.519768
-46.374146 6.7895432 43.210312
-45.852436 6.516336 43.514122
-45.448429 6.6624794 43.561718
-43.939621 6.5731602 43.393921
-32.764786 6.4752541 43.234463
-31.410421 6.5197563 43.373024
-29.211685 6.4656634 43.252655
-26.199148 6.4437685 43.255344
-25.872139 6.6806426 43.514717
-23.895519 6.6731396 43.509346
-18.578773 6.5181174 43.580566
-108.43164 6.8459187 43.456722
-101.64206 7.0459194 43.331623
-97.463173 7.0822058 43.535698
-91.958954 7.0667663 43.303078
-83.373161 6.9460001 43.505154
-82.417717 6.8682799 43.598846
-82.28537 6.813746 43.584991
-73.165108 6.8727131 43.445251
-63.688133 6.9435272 43.515453
-46.616688 6.973403 43.222134
-32.595886 6.9134274 43.581261
-32.194916 6.8779678 43.438236
-28.378151 7.0494809 43.231728
-25.768484 7.0235958 43.43787
-23.687977 6.894805 43.31797
-97.894684 7.2777958 43.525448
-92.862518 7.3425245 43.548096
-80.353142 7.3511457 43.368256
-71.411888 7.251297 43.416664
-47.476219 7.4975123 43.43795
-47.013172 7.5072622 43.265182
-45.039162 7.3457847 43.571472
-44.223804 7.4076166 43.242195
-30.628365 7.4340577 43.433743
-28.16428 7.2438102 43.276031
-27.747057 7.2024493 43.599861
-26.086807 7.3766947 43.286613
-25.850742 7.3808265 43.408073
-25.471718 7.3530402 43.361443
-23.929886 7.2511373 43.215439
-23.173527 7.4430838 43.269569
-22.164108 7.4711218 43.202206
-21.774216 7.5101523 43.48595
-21.500498 7.4477758 43.557152
-20.961065 7.3305802 43.453259
-20.508219 7.3894448 43.406773
-20.172752 7.4119444 43.448639
-110.51909 7.8559561 43.430672
-108.40094 7.7827578 43.205345
-71.021172 7.8181963 43.446808
-47.213573 7.9502649 43.356735
-44.293423 7.7007298 43.33411
-31.871916 7.9818592 43.432541
-29.687799 7.6295347 43.363991
-28.820934 7.9892507 43.282642
-28.717916 7.8801432 43.396149
-26.281254 7.7818155 43.473717
-22.187893 7.7551718 43.438831
-21.483181 7.7787943 43.275246
-20.598059 7.6783838 43.346672
33.386673 7.9115362 43.550518
33.667702 7.9232311 43.279533
-46.812271 8.0592413 43.357811
-32.077961 8.2736254 43.546932
-31.861288 8.0800886 43.371643
-31.338144 8.0064421 43.377762
-30.940258 8.1865759 43.537876
-30.6677 8.1546822 43.394066
-28.071655 8.0633583 43.316452
-26.366287 8.258296 43.599838
-25.943636 8.0897007 43.291618
-25.452324 8.099371 43.596775
-135.16483 8.5602379 43.250523
-134.68942 8.502182 43.341675
-134.21791 8.4987116 43.437237
-133.95168 8.5196953 43.457092
-118.50205 8.6882868 43.382736
-117.2977 8.6392975 43.21204
-116.49242 8.6339569 43.220676
-32.044228 8.4274549 43.488361
-30.483894 8.4108515 43.530678
-29.811218 8.534586 43.532829
-24.090111 8.427248 43.297783
-23.352823 8.4113283 43.576775
31.658716 8.6336803 43.49765
32.678417 8.4971313 43.232124
-134.26694 8.8401775 43.593697
-117.73669 8.9991608 43.276772
-117.32612 8.9730768 43.322216
-111.32495 8.9072647 43.58886
-110.91782 9.0594444 43.566444
-110.58995 9.164506 43.462158
-45.890396 9.1500711 43.260117
-28.004999 8.9737072 43.508202
-26.001968 9.0857573 43.591488
33.186325 8.8446913 43.364567
-134.10387 9.5173922 43.262157
-133.96576 9.5051289 43.283897
-133.50214 9.4807301 43.480408
-117.2198 9.3125582 43.449192
-110.96792 9.5011044 43.51305
-110.52841 9.3577843 43.395725
-27.353971 9.3417578 43.549076
-23.850451 9.5364037 43.492172
-134.01321 9.6584587 43.208542
-117.43204 9.8088598 43.46735
-117.15022 9.7606354 43.487572
-116.59029 9.9190874 43.568077
-110.87258 9.722043 43.441341
-110.58182 9.7984018 43.516651
-142.1292 10.344626 43.370098
-141.8098 10.291561 43.49564
-140.27414 10.170262 43.404243
-139.92351 10.067625 43.335518
-134.06586 10.225608 43.399628
-110.87962 10.369629 43.582546
-110.64542 10.053011 43.526031
-110.31829 10.15575 43.564949
-141.40048 10.543359 43.583488
-134.50443 10.536222 43.403145
-134.08217 10.5509 43.217804
-133.95918 10.529534 43.280956
-111.10663 10.498821 43.585892
-149.83269 11.199861 43.312126
-117.36919 10.861991 43.572594
-150.94382 11.561165 43.325722
-141.68564 11.310378 43.405495
-141.25824 11.511486 43.393257
-141.11211 11.428391 43.425537
-141.36752 11.74044 43.39719
-136.75523 11.928797 43.238098
-136.30612 11.858099 43.425041
-135.76253 11.8368 43.382607
-135.558 11.808345 43.379822
-150.81342 12.059784 43.587067
-136.98349 12.086182 43.386272
-136.64685 12.149613 43.556515
-136.26128 12.284933 43.439232
-135.79872 12.011538 43.416882
-135.57977 12.146402 43.587143
-151.33958 12.513388 43.359219
-151.17528 12.763868 43.484554
-149.79501 12.548035 43.369148
-149.53394 12.72877 43.37571
-136.99063 12.43113 43.267586
-165.73914 13.053421 43.570511
-151.22234 12.822791 43.462078
-151.08994 12.968036 43.407665
-151.41875 13.201484 43.345894
-166.44562 13.716658 43.30938
-152.01254 13.753613 43.273865
-156.60577 14.348613 43.300095
-152.34497 14.123768 43.313015
-156.76447 14.574203 43.527615
-76.640442 1.9847711 43.748592
-75.050331 1.9389426 43.790878
-74.6213 1.8910946 43.72485
-73.467834 1.8597405 43.691055
-73.095512 1.8684769 43.808804
-72.380295 1.8524382 43.667801
-71.000046 1.8585809 43.771847
-69.933792 1.820085 43.8148
-66.609116 1.8346361 43.800236
-66.263222 1.9101313 43.845501
-25.371408 1.8127714 43.873745
-92.684784 2.3976908 43.635849
-90.744209 2.2977545 43.659267
-89.868477 2.3264561 43.748856
-87.820854 2.2780066 43.736816
-84.67852 2.1583295 43.822594
-83.860809 2.07741 43.679131
-82.206978 2.0919251 43.729359
-79.382309 2.0279682 43.772533
-79.071739 2.0447979 43.947723
-66.683212 2.1998868 43.954155
-66.29084 2.0471287 43.848614
-25.836639 2.2916193 43.884964
-25.377192 2.2162848 43.82896
-25.17811 2.3172052 43.913872
-92.912903 2.6855268 43.629169
-88.369247 2.6112089 43.68544
-66.536125 2.7328987 43.831371
-66.284065 2.7730701 43.826759
-37.316917 2.6937611 43.633415
-37.104061 2.7697477 43.645199
-34.726044 2.7916474 43.797104
-25.917641 2.4018495 43.956474
-25.383312 2.5453157 43.826229
-111.71219 3.0965266 43.680321
-111.46484 3.0343952 43.790161
-107.94701 2.97683 43.600529
-106.0022 2.8643651 43.931499
-105.3029 2.8316081 43.940937
-103.35781 2.962594 43.616879
-103.05699 3.1077297 43.61158
-101.67918 2.8873703 43.892639
-97.6576 2.8568296 43.968178
-92.987595 2.9056594 43.605564
-79.390732 2.8511128 43.786167
-37.764709 2.8585601 43.831005
-37.02504 2.9766607 43.75317
-25.784054 2.9039619 43.920799
-25.390858 3.0160754 43.787117
-25.179573 3.0445681 43.85878
-126.86658 3.5382082 43.747437
-117.11463 3.3806961 43.723141
-116.6261 3.3111348 43.655048
-116.32735 3.3157587 43.951542
-115.02203 3.3082507 43.950211
-102.99841 3.3752985 43.627129
-97.600456 3.532371 43.817528
-87.955177 3.5823488 43.60968
-66.588417 3.3231518 43.925274
-66.314125 3.2077577 43.763741
-37.633041 3.3786588 43.837463
-37.378227 3.4443541 43.854931
-37.114532 3.5097704 43.799263
-35.29974 3.5463145 43.653076
-34.89922 3.5981197 43.752686
-25.861866 3.2218595 43.833313
-25.38793 3.4530737 43.728352
-25.116796 3.5790877 43.735714
-135.94987 3.8602853 43.933311
-134.11301 3.6978991 43.610371
-132.24809 3.6567476 43.742874
-131.26624 3.6502662 43.652084
-129.27762 3.6376393 43.660576
-117.26516 3.6520767 43.619106
-66.800041 3.8533373 43.712593
-66.554092 3.757983 43.900925
-36.93552 3.7025843 43.968658
-35.313087 3.7509527 43.859863
-34.944046 3.7823009 43.837418
-25.874582 3.8647397 43.737766
-25.460112 3.8461468 43.724155
-25.041979 3.9691231 43.833927
-136.64186 4.0788865 43.88559
-135.54851 4.0363441 43.940266
-103.05379 4.0425363 43.609711
-88.261024 4.1981239 43.817966
-66.655037 4.1709509 43.913193
-56.921799 4.1560793 43.637398
-56.705811 4.2854562 43.769165
-45.628609 4.3649836 43.615471
-26.060072 4.2845135 43.669132
-25.796225 4.1031199 43.713181
-25.393587 4.0331216 43.719467
-25.003757 4.2170086 43.733009
-158.43272 4.7887015 43.813385
-88.068871 4.468502 43.688957
-87.930023 4.5718565 43.732048
-87.170944 4.7767944 43.988438
-86.579926 4.560853 43.944168
-77.701675 4.7739968 43.929787
-76.893219 4.7218261 43.857258
-76.711411 4.7533908 43.837013
-68.027725 4.6813774 43.815006
-67.785789 4.6106472 43.690948
-67.579765 4.7980804 43.776833
-66.948311 4.7176123 43.887947
-58.490425 4.4494772 43.692299
-45.323662 4.6494265 43.917885
-25.709797 4.7740507 43.619041
-25.505215 4.5289106 43.676064
-25.019327 4.6970134 43.796783
-24.684923 4.7414503 43.693439
-162.54701 5.1376686 43.899433
-157.80728 4.9899864 43.774784
-155.84134 5.1605387 43.811707
-154.01349 5.1677594 43.816307
-153.98836 4.819232 43.881882
-153.09091 4.9880381 43.864967
-152.49132 5.1796207 43.938622
-151.59703 4.8779941 43.989899
-150.98618 4.9916968 43.767303
-149.46368 5.0040655 43.895012
-97.563477 4.973238 43.846619
-87.477417 4.8857241 43.8932
-87.089302 4.9169574 43.830299
-86.693756 4.8343964 43.769466
-79.916519 4.971981 43.934528
-77.795143 4.9073539 43.977745
-77.444176 5.060833 43.788471
-77.119362 4.9182005 43.797741
-69.670586 5.1681385 43.97274
-65.324478 5.1353269 43.698196
-64.878647 5.1025543 43.631618
-30.594234 5.0485396 43.933182
-29.372889 5.0182023 43.82571
-29.128881 4.9524593 43.908455
-26.044094 4.9425921 43.648792
-25.458414 4.866498 43.805206
-24.94166 4.9453382 43.740959
-24.564632 4.8542442 43.645504
-177.27567 5.5135746 43.828926
-169.88461 5.5987902 43.969456
-168.93906 5.5287437 43.702824
-168.54329 5.3693171 43.620125
-167.56302 5.5868196 43.773899
-164.7166 5.5439091 43.795555
-160.78052 5.5280218 43.711037
-159.34644 5.5610752 43.910202
-159.14801 5.5339541 43.819637
-158.00372 5.4056215 43.842484
-157.85211 5.5687456 43.750687
-155.90446 5.3279843 43.949425
-98.136284 5.282136 43.981674
-88.275581 5.5743628 43.923546
-86.959732 5.2081785 43.872215
-86.796593 5.5198264 43.64093
-79.837082 5.3749704 43.755989
-79.46981 5.2611899 43.868984
-78.49691 5.5247869 43.875168
-78.242912 5.4216995 43.892338
-77.736893 5.387085 43.96032
-77.553352 5.2127838 43.915794
-76.948761 5.5054779 43.687351
-76.526176 5.2069206 43.870525
-76.214088 5.3822522 43.861771
-71.370735 5.5978146 43.73233
-67.975296 5.4972868 43.669495
-66.864159 5.4720888 43.661346
-65.504524 5.4598398 43.713551
-65.163811 5.4904222 43.948395
-64.703697 5.522891 43.664803
-57.366611 5.5596418 43.906555
-57.013557 5.5211945 43.978134
-56.562084 5.3225155 43.967724
-46.525944 5.4617901 43.673111
-29.540722 5.2613277 43.749012
-26.117821 5.4046993 43.655151
-24.798122 5.5513244 43.891212
-18.918491 5.5951624 43.692165
-108.17823 5.9664421 43.606438
-104.16454 5.6190767 43.821396
-103.57384 5.9525352 43.836246
-102.48173 5.8717451 43.649071
-97.944733 5.8924866 43.870533
-93.701027 5.8893876 43.906464
-77.35125 5.8937998 43.758877
-77.148979 5.8705254 43.672798
-76.431625 5.8721771 43.742245
-76.345673 5.8353634 43.803436
-75.516663 5.7795401 43.68792
-74.713493 5.737649 43.652378
-69.812187 5.8230715 43.920479
-68.141853 5.731926 43.843399
-64.439262 5.6708307 43.981728
-45.508778 5.6313944 43.867783
-44.707195 5.6448116 43.801056
-44.067657 5.9853225 43.827202
-32.951729 5.8583775 43.625477
-32.498096 5.9238954 43.936886
-31.132706 5.8162737 43.83844
-25.840767 5.6742535 43.863014
-24.643023 5.814764 43.91824
-24.373306 5.7855105 43.906425
-19.273327 5.7156982 43.867939
-18.970381 5.7319503 43.842693
-17.657898 5.7962236 43.840286
-17.530869 5.7495017 43.621078
-102.59373 6.0319719 43.651329
-94.447838 6.2272944 43.901142
-88.257019 6.2744579 43.650444
-82.839806 6.1840792 43.801292
-82.484245 6.1821942 43.811123
-81.267151 6.3343067 43.930378
-80.183403 6.1063137 43.814293
-78.388512 6.1253881 43.734119
-77.729233 6.1762629 43.721298
-76.97229 6.2823858 43.804916
-70.153198 6.3619661 43.777744
-46.156693 6.160769 43.878662
-45.902176 6.3858581 43.696144
-45.50761 6.3236217 43.647038
-45.196468 6.3263483 43.942543
-44.282871 6.084888 43.774174
-33.613686 6.1274066 43.658562
-33.445045 6.1775017 43.916885
-32.985546 6.1415124 43.871685
-32.008263 6.1327138 43.676506
-31.913788 6.1201401 43.716038
-31.358374 6.1100216 43.77356
-31.01725 6.0884318 43.810349
-25.597416 6.0095577 43.927345
-24.250734 6.2708774 43.688362
-22.715944 6.3212509 43.852474
-20.113937 6.2618427 43.868538
-18.769863 6.3434834 43.640671
-82.554565 6.7787418 43.606972
-82.047104 6.7769628 43.627823
-81.331192 6.5473289 43.714321
-77.761192 6.7911816 43.665779
-77.571785 6.6421757 43.716965
-73.566154 6.7622919 43.704033
-67.367081 6.6485844 43.840279
-64.486176 6.505372 43.778824
-64.011787 6.6601171 43.655632
-46.705914 6.6843939 43.669834
-46.010242 6.4973383 43.797497
-45.800011 6.5974708 43.860008
-45.476784 6.5183477 43.622337
-44.290371 6.6450162 43.735706
-30.802597 6.692574 43.84322
-30.228985 6.6625776 43.84893
-26.123337 6.6489344 43.715927
-25.837713 6.5528054 43.661633
-23.970684 6.7954388 43.746201
-20.072851 6.5045285 43.8755
-19.801298 6.473649 43.794273
-19.312172 6.5315742 43.769325
-18.941927 6.4673834 43.84169
-18.600151 6.5198221 43.72596
27.911865 6.6232634 43.848072
28.093105 6.6537123 43.887856
-109.82749 7.1599112 43.719978
-103.27299 6.9474821 43.89706
-84.047897 6.8938856 43.735985
-83.677704 6.8778949 43.674988
-83.578201 6.9316816 43.66523
-82.932625 6.8073063 43.698029
-82.651993 6.8342834 43.658585
-73.501694 6.8910961 43.615215
-72.595627 6.9633493 43.847679
-64.817123 6.8849478 43.82605
-64.049507 7.0950866 43.734207
-63.049347 6.9983306 43.758083
-47.221611 7.0693636 43.704372
-46.97443 7.0842071 43.671082
-46.502556 6.9028258 43.737556
-45.357964 7.0276384 43.764732
-45.081314 7.1235723 43.688251
-44.548588 6.8459768 43.846455
-44.21933 6.8241854 43.734161
-32.872902 7.0126896 43.867874
-32.634254 6.9318471 43.679523
-32.014915 6.8603802 43.666916
-31.220192 6.9271569 43.647102
-26.590557 7.0991611 43.74073
-26.130304 6.9947066 43.666309
-25.489105 6.8097262 43.623535
-25.055353 6.8960662 43.618988
31.660336 6.8499799 43.644897
-97.711998 7.208312 43.774723
-97.39093 7.4062786 43.74826
-96.828873 7.4895983 43.635986
-96.556931 7.4235678 43.923042
-95.411209 7.3803172 43.92527
-92.705338 7.4860373 43.63385
-92.338402 7.2151489 43.893379
-83.449875 7.2540827 43.628822
-64.019119 7.3169494 43.950638
-47.349262 7.5176573 43.629562
-47.069214 7.3464518 43.778427
-45.381336 7.2863946 43.889069
-44.967808 7.3374653 43.771629
-44.295319 7.2375708 43.900829
-32.230751 7.4152703 43.941406
-27.855087 7.2302661 43.655697
-27.407692 7.4634166 43.947319
-26.800827 7.4429135 43.85321
-26.694611 7.3569641 43.798233
-26.350283 7.3000436 43.798798
-24.669445 7.3415775 43.716564
-22.657242 7.4171705 43.839302
-21.72982 7.3869476 43.896454
-21.482702 7.4592581 43.803814
-20.541603 7.3670688 43.673981
-20.178106 7.3589454 43.700958
35.327003 7.2812762 43.666149
40.244064 7.5756812 43.882183
-109.90472 7.8382673 43.61776
-96.565933 7.7014055 43.708565
-56.327621 7.7744985 43.929329
-46.96402 7.8511086 43.857811
-45.292099 7.9706392 43.651825
-44.888 7.6295395 43.900887
-32.246223 7.6151075 43.969746
-31.922901 7.8495975 43.91349
-28.662868 7.8489623 43.853561
-27.644905 7.7881274 43.929287
-27.020882 7.8640971 43.837784
-21.266956 7.7830458 43.97506
-20.983452 7.8676572 43.835491
-20.762575 7.9818773 43.759117
44.840725 7.9790339 43.930027
-110.45728 8.1600637 43.656723
-96.973793 8.2773876 43.796528
-96.693863 8.1958742 43.914928
-96.167549 8.0793467 43.725739
-70.889214 8.0118351 43.634708
-56.305786 8.0393591 43.93713
-46.799881 8.0168362 43.719288
-32.198868 8.2096014 43.873211
-31.777231 8.239439 43.600235
-31.502136 8.1691628 43.828186
-31.137026 8.1339645 43.747566
-30.428591 8.0917711 43.719597
-30.316704 8.207531 43.781563
-27.370821 8.2517538 43.933411
-26.460173 8.1989574 43.642723
-25.195299 8.2324085 43.755951
-23.449184 8.2350216 43.959316
-19.363049 8.1475897 43.604118
-135.30551 8.7058582 43.792175
-134.55377 8.545311 43.735279
-134.18169 8.4727392 43.710251
-133.94142 8.5068579 43.763752
-96.164093 8.7155037 43.809883
-32.186565 8.4257479 43.860199
-30.905588 8.5960846 43.692772
-30.731148 8.5996799 43.884556
-29.271734 8.4586153 43.799213
-29.104321 8.4859543 43.862274
-27.772072 8.7315407 43.875587
-26.651947 8.6183224 43.772789
-26.125643 8.4982395 43.791473
-24.817003 8.5028591 43.68631
38.149277 8.7032509 43.956642
-134.05301 8.8569946 43.996216
-133.90898 8.9494686 43.666786
-118.21769 9.1109695 43.855404
-117.33387 9.1950417 43.870121
-116.46999 9.1118374 43.800522
-116.30628 9.1080923 43.817158
-115.94783 9.1152534 43.86451
-111.2159 8.896883 43.706383
-111.00214 8.9621925 43.662766
-110.52689 8.9015512 43.685051
-96.029884 8.8724174 43.98999
-95.85601 8.8578091 43.938728
-30.946995 8.9532576 43.926098
-27.614216 8.8797674 43.979309
-24.705732 9.1685991 43.821831
-133.827 9.5171242 43.943436
-118.06506 9.3252916 43.86301
-117.63705 9.4139328 43.862427
-117.29308 9.2453003 43.860306
-116.85432 9.3114357 43.73336
-116.23574 9.3500557 43.828217
-115.70482 9.2340488 43.761822
-111.61773 9.5324335 43.96257
-110.35491 9.4980965 43.984489
-109.47002 9.5548449 43.997147
-109.09403 9.4803467 43.994022
-28.837189 9.3815327 43.64283
-23.877987 9.3611145 43.692619
-133.77626 9.8124523 43.747833
-118.28265 9.9253492 43.951038
-117.77209 9.7925415 43.881363
-117.30026 9.8920412 43.68055
-116.55146 9.8494492 43.676476
-116.17857 9.8193007 43.775009
-115.97113 9.93011 43.768101
-111.23924 9.7907104 43.755405
-110.91959 9.8183451 43.806446
-110.53625 9.8650665 43.88237
-110.34579 9.9014263 43.863346
-28.769762 9.6715612 43.796814
-27.214062 9.8644609 43.749023
-27.171684 9.6615849 43.705338
-140.60519 10.26254 43.775658
-118.73019 10.104935 43.96978
-118.13123 10.027717 43.930424
-116.56479 10.050929 43.672562
-116.21118 10.063293 43.923607
-111.32582 10.164992 43.851536
-110.91307 10.170359 43.831825
-110.55797 10.162906 43.687984
-110.29968 10.313452 43.893948
-26.914307 10.275764 43.631504
-143.65048 10.445728 43.924164
-134.15576 10.606618 43.822449
-133.89394 10.627832 43.829094
-117.35932 10.760283 43.875069
-116.98888 10.727884 43.87693
-116.6877 10.598177 43.869766
-110.93947 10.689236 43.677559
-110.51525 10.655003 43.663467
-117.79823 10.879793 43.941948
-117.25219 10.927801 43.698494
-116.97109 10.908125 43.792316
-116.61465 10.912467 43.820911
-116.24818 10.917789 43.840626
-115.94786 10.880247 43.900963
-150.24208 11.322032 43.766132
-149.72189 11.550562 43.759315
-140.49417 11.298451 43.690182
-140.01019 11.347391 43.979889
-135.50763 11.479238 43.73481
-150.39456 11.840761 43.926758
-137.45038 11.676764 43.880848
-136.77104 11.651802 43.67141
-135.7838 11.623234 43.708099
-135.25027 11.875321 43.733978
-135.00168 11.848849 43.969498
-150.16208 12.250406 43.924171
-136.83197 12.179577 43.650108
-136.47438 12.015285 43.645741
-136.16614 12.048893 43.796421
-135.70377 12.119715 43.967392
-135.52132 12.150263 43.809761
-135.1351 12.142166 43.954422
-150.04703 12.454576 43.937607
-149.9458 12.641254 43.618568
-136.89932 12.672219 43.683998
-136.20616 12.602733 43.960953
-166.27542 13.184039 43.689396
-151.40405 13.086205 43.715439
-151.12158 12.974406 43.860851
-136.28156 13.149464 43.939804
-135.97211 13.129303 43.918503
-166.20024 13.341536 43.962132
-152.73099 13.532833 43.883259
-76.675949 1.9888704 44.010513
-74.947891 1.9703789 44.344215
-74.590607 1.9269719 44.204857
-74.251465 1.9108238 44.09507
-73.856529 1.9478151 44.377052
-72.823837 1.870087 44.105801
-71.180786 1.8707292 44.30941
-69.719734 1.8147314 44.267014
-38.12215 1.9209312 44.194839
-37.757309 1.9656627 44.228626
-37.302616 1.9770622 44.364243
-35.548763 1.8080173 44.005051
-25.82303 1.8437941 44.010525
-92.656921 2.3036265 44.090866
-90.543587 2.2971268 44.125076
-82.701973 2.104553 44.220467
-81.9319 2.095623 44.05455
-80.098801 2.3841367 44.06411
-79.696266 2.2311101 44.095558
-25.687061 2.0061414 44.02026
-99.454079 2.6711032 44.373955
-98.182724 2.6524477 44.156193
-97.627609 2.7247138 44.220425
-97.3256 2.6245918 44.107048
-95.720985 2.5558476 44.067024
-93.88279 2.4913945 44.160637
-79.730438 2.5829916 44.185513
-38.507172 2.6124697 44.302952
-38.150566 2.6354771 44.279404
-37.954414 2.6647387 44.238663
-25.501968 2.6860843 44.002571
-111.46362 3.1165836 44.200165
-110.40523 3.0286162 44.096317
-110.09366 3.0299594 44.0149
-107.83793 2.9652467 44.265694
-105.65218 2.8704119 44.119953
-98.294312 2.8714337 44.073723
-97.807373 3.0519962 44.067734
-79.614273 3.0880086 44.15377
-37.090965 2.9525876 44.244705
-35.541435 2.8096218 44.234707
-119.2113 3.4163923 44.339645
-117.81352 3.3856788 44.242527
-117.37705 3.3802032 44.039703
-114.02982 3.2684207 44.057114
-97.792183 3.3682437 44.107582
-80.107681 3.3340778 44.128551
-79.676193 3.3986154 44.178505
-57.511665 3.4495201 44.322639
-37.934601 3.2448194 44.214661
-37.231621 3.5533409 44.39135
-36.686069 3.565639 44.125214
-134.66594 3.8949373 44.101814
-132.81293 3.8191061 44.022484
-131.9328 3.6598482 44.171745
-130.99759 3.6525917 44.118195
-98.217163 3.8400934 44.130814
-97.786705 3.9416695 44.132812
-79.681068 3.8626997 44.211472
-57.616039 3.9260318 44.108543
-37.048653 3.6001523 44.237179
-35.77409 3.8154991 44.350006
-35.584854 3.9615583 44.217766
-25.689354 3.9297128 44.157898
-145.57335 4.3100619 44.231125
-80.089622 4.1083078 44.125443
-79.716232 4.2827511 44.226048
-56.91893 4.2918806 44.085552
-56.756111 4.3380232 44.209732
-37.308498 4.1305714 44.262802
-36.946815 4.1054277 44.34259
-35.604942 4.0703664 44.04599
-35.548584 4.2160792 44.000206
-29.462692 4.2166038 44.336254
-29.110928 4.1689725 44.360909
-25.383343 4.1805749 44.222511
-98.154602 4.5037622 44.11013
-97.736244 4.6950688 44.114487
-86.975433 4.6553011 44.203156
-79.740616 4.5579824 44.179436
-79.581635 4.6027484 44.16843
-78.018463 4.7420006 44.183372
-77.259712 4.735106 44.15691
-76.9972 4.7063203 44.155396
-72.925095 4.5598431 44.371696
-67.503426 4.4909058 44.225777
-66.562256 4.7446194 44.285019
-63.879475 4.6983566 44.127796
-59.306946 4.4105039 44.216881
-57.211761 4.4806662 44.291855
-56.645359 4.4405947 44.21759
-37.289028 4.5385246 44.2103
-29.956615 4.6946387 44.229401
-29.432846 4.5581551 44.264702
-25.402328 4.5864739 44.19223
-151.92424 4.8459921 44.152905
-151.40918 4.8644762 44.297043
-149.8428 4.8928914 44.080498
-149.26073 4.871829 44.319973
-148.33311 4.9660139 44.209332
-146.81404 4.9225798 44.328629
-146.71349 5.0284233 44.179951
-145.65053 5.183548 44.012779
-145.4949 5.0408063 44.345169
-144.68636 5.1960077 44.254158
-98.104446 5.0448236 44.069912
-97.933998 4.9504714 44.081642
-87.009163 4.9576354 44.173805
-80.14695 4.8518324 44.202316
-79.965942 4.9203095 44.081337
-77.922943 4.9111953 44.157089
-77.245979 5.1335926 44.204369
-77.194649 5.116643 44.17543
-76.681641 5.0155449 44.185944
-76.285141 5.0618415 44.250275
-73.332314 5.0266881 44.134003
-73.072586 5.076921 44.16283
-67.82756 4.9349546 44.148941
-65.368828 4.8675003 44.026741
-64.860962 5.1312985 44.147522
-30.900913 5.0658851 44.067734
-30.129126 5.1219497 44.186386
-29.792152 5.0421133 44.35334
-29.454502 5.1046495 44.270817
-29.103897 4.8916278 44.00425
-25.428152 4.9495559 44.21167
-24.990198 4.9215097 44.228477
-167.79895 5.477499 44.190712
-163.41724 5.5672879 44.16473
-158.1962 5.3336163 44.15316
-155.49965 5.438468 44.369007
-152.44992 5.5806189 44.350071
-151.57054 5.3556929 44.310829
-149.8089 5.2040839 44.237564
-148.38025 5.2102246 44.267811
-98.316307 5.237977 44.09565
-97.64325 5.4589639 44.212013
-86.877441 5.3089485 44.039967
-83.564095 5.537549 44.36322
-78.554916 5.3338394 44.281746
-76.462395 5.3128457 44.003246
-76.335686 5.4227886 44.173553
-72.901413 5.4409351 44.377464
-67.912758 5.5330153 44.12595
-57.37355 5.435792 44.19104
-56.598602 5.4026933 44.154785
-30.484528 5.3372488 44.134331
-30.223961 5.2599535 44.122879
-177.37634 5.611269 44.213791
-174.7002 5.6184249 44.23011
-167.76099 5.6354852 44.277119
-99.367912 5.7578874 44.303894
-98.948921 5.8642325 44.148132
-98.203461 5.757328 44.109745
-84.568199 5.6255512 44.315117
-78.725029 5.6452484 44.371284
-77.321747 5.6383581 44.122513
-71.71257 5.955452 44.39399
-69.651802 5.8548942 44.036201
-65.343758 5.6053381 44.227604
-64.777031 5.6854439 44.104309
-57.121689 5.7394123 44.164917
-56.447777 5.6469393 44.325981
-45.017311 5.7329445 44.16711
-44.677502 5.7845378 44.188721
-44.341537 5.6964464 44.065403
-33.829758 5.9697905 44.088287
-33.550079 5.9751415 44.305092
-32.574451 5.9757652 44.299866
-32.23275 5.9042897 44.234993
-31.429333 5.967845 44.310539
-31.129864 5.6896982 44.199799
-29.663677 5.8194866 44.165024
-29.554487 5.9959044 44.117638
-29.060421 5.9050899 44.312782
-24.620977 5.7895613 44.007843
-19.098989 5.8978324 44.137985
-18.548143 5.7853036 44.20993
-18.204721 5.8134041 44.169193
-17.808149 5.8142319 44.073284
-17.553633 5.8013091 44.090519
-84.125343 6.1794786 44.125877
-79.320129 6.0629783 44.071022
-66.191818 6.2783422 44.390923
-46.287506 6.2060375 44.020233
-44.976837 6.2518425 44.116241
-34.095131 6.1142116 44.379158
-33.836021 6.0511656 44.171886
-33.031448 6.0786886 44.042686
-32.584763 6.2795153 44.235199
-30.901623 6.1032228 44.230865
-29.571115 6.0363088 44.0219
-24.950703 6.1140232 44.396946
-24.730705 6.061471 44.359547
-23.586845 6.3980622 44.080223
-20.216961 6.360611 44.054062
-19.810928 6.2212563 44.155842
-19.435104 6.1463475 44.342751
-18.989286 6.2550797 44.262646
-18.235876 6.1965814 44.04985
-118.4379 6.7039289 44.205788
-115.2621 6.5948515 44.367527
-93.570969 6.5671263 44.353058
-91.120232 6.7770944 44.287628
-73.761604 6.7151737 44.086975
-64.75576 6.5597334 44.124901
-64.175705 6.7521086 44.220528
-62.749939 6.7807136 44.004971
-45.773216 6.4956608 44.083549
-45.183033 6.5602551 44.390045
-44.340477 6.6167092 44.024582
-28.895994 6.5834751 44.309574
-26.967136 6.7520142 44.34227
-24.488934 6.7973804 44.367783
-18.98143 6.4578509 44.324211
28.990623 6.7937088 44.223373
-102.94039 7.1668124 44.257797
-97.864029 6.8478193 44.366974
-91.405487 6.8999109 44.317093
-90.331459 7.1326914 44.346741
-73.062569 7.1563768 44.212387
-72.690201 7.1491261 44.074951
-62.819145 6.8150454 44.0783
-45.928024 6.9133739 44.251503
-45.412922 7.1254659 44.013729
-32.956112 7.0226049 44.193863
-32.255161 6.8441625 44.365307
-24.723722 6.9533553 44.218925
-23.760147 7.0396404 44.155357
-21.431086 7.0723228 44.196533
28.479319 7.0579491 44.282887
31.500908 7.0092831 44.303787
34.357304 7.1527615 44.188492
-97.230194 7.4759049 44.028278
-95.756363 7.3386497 44.053288
-95.404999 7.4139132 44.181339
-95.081772 7.3685579 44.112465
-89.736343 7.4307718 44.386005
-83.562523 7.2049389 44.115753
-72.493767 7.3626747 44.27282
-56.843502 7.398746 44.348503
-56.609138 7.5000472 44.249714
-56.237755 7.4653091 44.253826
-45.878662 7.3614674 44.381676
-33.761597 7.2462068 44.163536
-33.581112 7.3833365 44.101315
-32.532539 7.4075685 44.328686
-32.185505 7.2166991 44.126724
-31.393843 7.2856865 44.189419
-29.510674 7.4693384 44.282887
-28.573084 7.513453 44.232189
-28.300304 7.4651856 44.071476
-27.5257 7.4942245 44.15834
-23.035358 7.328002 44.299347
-20.968456 7.3567905 44.025124
37.1343 7.3107972 44.325642
-105.54208 7.8759489 44.386169
-97.679123 7.8621788 44.099022
-95.495323 7.6416464 44.326492
-91.516891 7.7980337 44.375023
-56.545887 7.7466445 44.189919
-56.149311 7.7849488 44.148861
-55.919075 7.7953844 44.292419
-45.540855 7.8052001 44.294941
-44.519592 7.6194868 44.219643
-44.226265 7.9900427 44.194099
-32.962612 7.8577995 44.263237
-32.705791 7.8917065 44.098469
-29.885633 7.9627552 44.270905
-24.633751 7.9278784 44.1348
-24.142252 7.6796298 44.308987
-22.882309 7.6935096 44.131584
-21.365515 7.8378749 44.111126
-20.891047 7.7995658 44.165764
-20.693663 7.8037224 44.169968
31.024914 7.9481897 44.324734
32.515808 7.8828344 44.255932
33.242054 7.7917166 44.206013
-97.49604 8.1028786 44.294815
-97.128845 8.0873003 44.14476
-96.646202 8.1496754 44.164288
-95.869965 8.1407804 44.125721
-95.432747 8.1707315 44.135406
-91.9254 8.0655766 44.328651
-91.430115 8.0043621 44.266853
-87.350952 8.2902203 44.359852
-56.853912 8.1139297 44.281971
-56.629154 8.185461 44.252277
-56.229973 8.1504889 44.242725
-55.933987 8.0204754 44.238663
-32.415855 8.2317982 44.158764
-32.288017 8.2023029 44.112
-31.836082 8.2086945 44.147667
-31.472572 8.2458124 44.149811
-30.045177 8.3527079 44.248051
-29.758059 8.0797977 44.015907
-22.149071 8.3394489 44.274559
-20.016455 8.0378695 44.300468
-19.751265 8.1698637 44.154144
-137.00992 8.7930889 44.374649
-136.63556 8.7632151 44.382324
-134.15706 8.624589 44.196716
-133.73302 8.7142658 44.134525
-119.38797 8.7223244 44.364021
-118.96488 8.6138124 44.289005
-100.67947 8.7745934 44.35545
-96.982666 8.5343809 44.185349
-96.613075 8.5800133 44.150181
-96.217834 8.6061735 44.199383
-95.795593 8.4373846 44.106018
-95.295357 8.4212141 44.287155
-87.747559 8.6695175 44.330044
-56.653008 8.4516878 44.364594
-56.169514 8.4074907 44.28857
-31.383511 8.7964764 44.16787
-30.912136 8.6572037 44.115921
-30.746773 8.7690477 44.196655
-29.74572 8.4564323 44.005302
-28.974228 8.5575943 44.345551
-27.267975 8.5838814 44.242264
-25.060879 8.5881748 44.292786
-23.456284 8.5524721 44.347191
-21.861961 8.4993353 44.238209
-21.586998 8.5941582 44.223976
-134.03168 8.9156828 44.100464
-119.64064 9.0532751 44.291122
-119.37181 8.8765707 44.294853
-119.17611 9.038641 44.396584
-118.72411 9.0814629 44.341499
-115.76476 9.1951447 44.100288
-114.85756 9.0231361 44.192932
-114.58763 9.1403885 44.255363
-112.41381 9.1911106 44.224876
-110.28189 9.0623674 44.078018
-109.7026 8.9762268 44.224609
-109.08757 9.1319618 44.394623
-95.814064 9.0295734 44.158176
-87.811066 8.8404398 44.390476
-30.725042 8.8870735 44.07616
-30.096348 8.9669895 44.244568
-29.813839 8.9421997 44.119614
-24.922703 9.0811377 44.036152
32.651031 8.9118643 44.236507
-133.85751 9.3509569 44.150879
-133.38361 9.5682716 44.028717
-119.01285 9.2816458 44.358261
-118.51051 9.4838257 44.2976
-116.80833 9.2414913 44.171104
-116.51657 9.3949852 44.153885
-116.2439 9.3531475 44.274925
-112.9763 9.3977537 44.331802
-112.27908 9.3631334 44.393433
-111.33381 9.5595798 44.090706
-109.84529 9.5373077 44.16568
-109.35938 9.3385677 44.147053
-134.42328 9.8564034 44.349869
-118.10001 9.6689177 44.037834
-117.81696 9.9585609 44.071045
-117.20489 9.7992754 44.158077
-116.55727 9.8841991 44.054173
-115.68291 9.8713093 44.121109
-115.38168 9.8406029 44.17004
-114.70349 9.8339157 44.37487
-112.90167 9.7330685 44.290924
-112.76549 9.6947021 44.329803
-112.09253 9.9153786 44.024513
-111.81018 9.801651 44.149368
-111.54549 9.7841988 44.158966
-111.1402 9.6219435 44.046204
-110.11794 9.7962246 44.168766
-109.80667 9.8660927 44.163315
-109.29129 9.6827497 44.112415
-28.090208 9.7031641 44.091118
-140.21046 10.293154 44.205681
-134.56393 10.373243 44.224308
-134.21414 10.345985 44.337635
-117.62488 10.146809 44.351757
-117.37283 10.249467 44.204903
-116.96627 10.157829 44.232063
-116.57906 10.222001 44.173172
-115.77794 10.159991 44.370853
-115.38058 10.062566 44.086163
-115.03483 10.183606 44.162094
-114.64176 10.15134 44.189972
-112.62688 10.11396 44.319427
-112.38918 10.199059 44.399208
-111.7892 10.119719 44.086472
-110.62964 10.286368 44.220123
-110.12466 10.207598 44.22752
-26.814774 10.029247 44.098999
-143.5631 10.567307 44.100536
-134.83025 10.785349 44.277004
-117.67656 10.564962 44.131844
-117.563 10.577452 44.251289
-117.17974 10.548782 44.090332
-116.41369 10.764811 44.06456
-116.29132 10.572728 44.247604
-115.92097 10.776294 44.254005
-115.41466 10.622705 44.226849
-115.12798 10.503667 44.153275
-112.95332 10.613188 44.29805
-112.7813 10.522818 44.342926
-110.54964 10.492495 44.079811
-110.11436 10.550134 44.151318
-149.24918 11.055019 44.197891
-135.25461 11.078997 44.277847
-134.99017 10.9442 44.22702
-117.77053 11.006407 44.16214
-117.42686 10.910845 44.163338
-116.82699 11.198647 44.199257
-116.56476 10.836766 44.112701
-116.26467 10.858002 44.157818
-115.99628 11.015304 44.091309
-112.87067 11.01268 44.250088
-112.57192 11.056698 44.3255
-112.34499 11.14813 44.308254
-111.84315 11.067828 44.30114
-110.80183 10.820036 44.268677
-150.43848 11.405316 44.011261
-150.03662 11.309745 44.106709
-149.76024 11.287689 44.10075
-149.49362 11.270485 44.267967
-139.89763 11.368079 44.037647
-135.32956 11.475334 44.239655
-135.08072 11.533791 44.373207
-116.58439 11.359698 44.288914
-111.89595 11.250512 44.397514
-150.27426 11.81864 44.134708
-149.60118 11.958769 44.039253
-141.31216 11.617789 44.297466
-135.40442 11.875372 44.180321
-134.90111 11.936578 44.136074
-134.60847 11.885762 44.254375
-116.64351 11.640657 44.329445
-137.4201 12.330233 44.134304
-135.62372 12.158396 44.133987
-135.3508 12.34927 44.262497
-135.05923 12.188098 44.184204
-134.53799 12.084232 44.25264
-149.8537 12.700372 44.270481
-136.66556 12.525833 44.006882
-150.11783 12.821654 44.357094
-137.0885 13.005493 44.35083
-136.00163 13.086202 44.39901
-135.80019 13.102291 44.102615
-135.54335 13.100201 44.163879
-151.58249 13.396858 44.208328
-136.80879 13.336462 44.288834
-136.68631 13.313145 44.395042
-152.55872 13.605712 44.186668
-152.24829 14.229048 44.278526
-77.552444 1.9890144 44.776711
-75.279404 1.9661093 44.459816
-73.695274 1.9418075 44.544998
-73.297577 1.9504173 44.607117
-72.901314 1.9573427 44.620758
-72.542816 1.8711673 44.413311
-92.6884 2.384321 44.457909
-87.012245 2.1938915 44.688034
-85.553192 2.125447 44.467724
-82.881012 2.2961216 44.620438
-81.369019 2.1017461 44.697411
-80.342659 2.1422811 44.458862
-73.498581 2.3110056 44.661892
-73.015892 2.3377135 44.731625
-63.651726 2.180845 44.668808
-63.527412 2.3892822 44.733978
-63.035202 2.3893998 44.517097
-57.954239 2.3766174 44.741371
-57.32428 2.1590796 44.76796
-38.026382 2.2979093 44.465309
-30.110725 2.1514268 44.6562
-29.755402 2.2331607 44.513786
-98.660606 2.689827 44.58186
-97.222565 2.6135511 44.794933
