# .PCD v0.7 - Point Cloud Data file format
VERSION 0.7
FIELDS x y z
SIZE 4 4 4
TYPE F F F
COUNT 1 1 1
WIDTH 1563
HEIGHT 1
VIEWPOINT 0 0 0 1 0 0 0
POINTS 1563
DATA ascii
-33.488312 2.1853182 4.5213523
-28.846004 2.301075 4.5571308
-28.718821 2.2179177 4.4540091
-28.169577 2.1715739 4.4762464
-27.941128 2.2518568 4.4372149
-27.356318 2.1112146 4.6046572
-27.036242 2.1305144 4.5667233
-26.696541 2.110394 4.6056094
-22.9888 2.0774877 4.4348831
-22.694284 2.1106451 4.4809551
-21.045904 2.2481861 4.5754743
-20.494154 2.1935406 4.5865536
-20.331907 2.2710969 4.5422015
-19.793474 2.2222583 4.6387482
-19.566151 2.3929021 4.7744923
-19.017769 2.2801864 4.7635918
-17.363995 2.0483394 4.4751754
-17.148281 2.0972085 4.4230309
20.632822 2.3375218 4.7479277
-130.11749 2.675544 4.6195765
-128.46004 2.6176577 4.7962227
-128.19769 2.5709224 4.6044827
-127.84295 2.4800367 4.6265588
-34.609814 2.6182704 4.6104703
-34.332554 2.6229608 4.5886817
-33.694309 2.4960096 4.6897397
-28.886795 2.7019973 4.5471582
-28.626547 2.6678364 4.5833578
-28.14497 2.5541291 4.6636586
-27.281849 2.6112485 4.647337
-27.073004 2.5273275 4.5484552
-26.73226 2.6391718 4.4988151
-22.530952 2.7202301 4.4931879
-22.316278 2.680732 4.4902568
-21.677601 2.49331 4.5801754
-20.891521 2.6828766 4.4765091
-20.606998 2.6277285 4.5801816
-20.340899 2.5589526 4.4109769
-19.71332 2.5099587 4.6997232
-19.501846 2.6922555 4.5550451
20.647114 2.5674541 4.6890774
-137.61002 3.14224 4.5284386
-137.01218 3.0426278 4.6018753
-136.61945 3.0729837 4.5629654
-136.19814 2.9879994 4.521595
-135.82748 2.9394748 4.6452847
-135.37576 2.9685895 4.7868977
-135.04668 2.9378543 4.597599
-134.77663 3.0635586 4.6830487
-134.08025 2.9487672 4.7258682
-133.89502 3.0660846 4.618958
-132.56148 3.0965044 4.7056422
-132.28316 2.9270046 4.4614224
-131.31313 2.975296 4.5547357
-130.9697 2.9320238 4.5997143
-130.75125 2.9602575 4.4816704
-130.11497 2.9541245 4.6055832
-106.6264 2.9278235 4.677887
-103.82735 2.810396 4.5483379
-34.316147 2.8957748 4.5631833
-28.849712 2.8399076 4.4670715
-28.734224 2.9977257 4.4830766
-27.27577 2.8820746 4.6578779
-27.120319 3.0962329 4.7935982
-23.650578 2.9972529 4.4191551
-21.625019 3.1021261 4.7055507
-21.110352 3.0481286 4.5312595
-20.609421 2.9872248 4.4945283
-19.91021 3.0508559 4.7171206
-19.352715 2.9644153 4.4522748
-19.191643 2.8785861 4.4115415
20.668552 3.1454644 4.6715035
20.862541 2.8918426 4.6694961
-141.97943 3.5069792 4.4768305
-137.73297 3.2587838 4.5744133
-137.43332 3.5171499 4.6007061
-136.94702 3.2725153 4.7101507
-136.60651 3.2284708 4.5590076
-136.13788 3.3035946 4.7051125
-135.14664 3.2455437 4.7950678
-134.79538 3.2305822 4.6011496
-22.528416 3.4372218 4.6108971
-22.284504 3.529798 4.4328365
-21.721865 3.5389884 4.5329585
-21.517462 3.3255777 4.5883417
-20.438681 3.3135471 4.7656178
-20.199795 3.2692108 4.6517463
-19.870295 3.334326 4.7158756
20.663092 3.3688574 4.5938759
-142.80884 3.9077733 4.4979916
-142.59288 3.7284412 4.4813652
-137.72684 3.7825389 4.594017
-137.56017 3.9857011 4.6161804
-136.84241 3.7151208 4.451746
-136.70235 3.6805491 4.4829464
-136.18143 3.8202555 4.4568911
-135.70413 3.7937908 4.5436687
-135.22809 3.6976683 4.7380943
-134.58124 3.7853968 4.5477743
-134.38956 3.7403164 4.5644264
-133.45828 3.6669455 4.5783854
-132.54359 3.8412058 4.5902877
-132.23178 3.702817 4.603323
-131.92908 3.6525199 4.7458019
-130.71375 3.6542118 4.7694168
-22.906218 3.7477193 4.4186649
-22.523617 3.7723007 4.4163895
-21.754871 3.9273953 4.7435379
-21.4524 3.8549757 4.4575419
-20.684299 3.6130567 4.797308
-20.247614 3.885262 4.5876622
-19.8375 3.6176047 4.7331643
-19.305769 3.9342353 4.7197108
-142.5802 4.1842012 4.6714869
-137.60765 4.0743012 4.4183998
-137.50929 4.0306354 4.4495711
-22.438417 4.1186314 4.4190674
-21.061333 4.2382498 4.5486293
-20.195118 4.2020273 4.64956
-19.962473 4.3476052 4.6904554
-19.381771 4.2805533 4.6128144
16.222002 4.091888 4.5789862
-142.5563 4.4024644 4.7296505
-132.44022 4.6602855 4.7444849
-52.026581 4.6036644 4.472868
-51.823406 4.7813034 4.7759552
-51.135529 4.6276617 4.5767617
-20.688017 4.4117718 4.5023198
15.495499 4.6141582 4.5926113
15.915703 4.7278862 4.4413433
16.905369 4.5181341 4.499548
-51.859119 4.9675727 4.5190754
-51.472481 4.8645906 4.7129192
-51.110653 5.0756116 4.4993038
-22.102171 4.8490019 4.6372852
15.996384 4.8350253 4.7143836
16.262079 5.127049 4.607903
16.498791 5.0091891 4.4247885
-51.716877 5.5101528 4.7559719
15.897491 5.54566 4.4957161
16.699368 5.5199661 4.5021415
16.925999 5.458427 4.4526792
-137.55679 5.9512825 4.4036598
15.038925 5.9893942 4.4044428
15.699948 5.7200813 4.7094584
16.280619 5.9077196 4.7007551
-137.63959 6.1123819 4.5756359
-137.52928 6.1845798 4.5112801
15.894979 6.1725497 4.6715789
16.355089 6.1898894 4.4664145
16.578579 6.1720657 4.6084747
16.904232 6.1277294 4.4150267
17.290142 6.2499695 4.5304046
17.963377 6.3556056 4.7066841
18.972397 6.2996707 4.6086073
19.331261 6.2507706 4.5949545
-137.67546 6.5034075 4.5969496
-137.36906 6.4471636 4.6960416
-137.11205 6.6433973 4.6281261
-128.89841 6.5257215 4.4345684
-128.78787 6.7290015 4.4709339
-112.46168 6.7384515 4.7512131
-112.1796 6.7431254 4.5260658
17.009548 6.5359879 4.4045219
-137.32802 7.0060496 4.5141377
-137.13205 7.0985627 4.5820694
-112.88127 6.8705249 4.542717
-112.41701 6.9402671 4.573595
-112.26045 6.9884062 4.5850935
-111.96082 7.0537763 4.6239266
17.144485 6.9088621 4.5887432
17.212952 6.9147387 4.4544907
17.773094 6.9844594 4.7773738
18.568142 6.9345655 4.5670633
-137.5018 7.2590189 4.5540586
-128.89679 7.3824511 4.7098007
-128.66615 7.5255837 4.6507568
-128.3443 7.5468626 4.5309563
-112.90715 7.5287013 4.4877472
-112.66844 7.554101 4.4781337
-112.1917 7.5334587 4.6091042
-111.85665 7.3484411 4.5928497
-129.44615 7.9951057 4.7748613
-129.07869 7.909976 4.670866
-128.54359 7.8111229 4.4600587
-112.86382 7.626153 4.4960651
-112.14726 7.6312289 4.4201994
-111.90796 7.6402297 4.5634098
-129.37363 8.2037525 4.669322
-128.92355 8.1604595 4.5817223
-128.54065 8.19345 4.6517701
-128.36835 8.2066793 4.4253254
-128.9823 8.5312099 4.546155
-128.55612 8.4535608 4.6612058
-129.09206 8.8171883 4.6824169
-128.67508 9.1290245 4.7034645
-129.11584 9.4780865 4.7202091
-128.66452 9.4954042 4.5896149
-128.97719 9.9058838 4.4806099
-129.30528 10.180892 4.4576988
-117.46509 1.9701848 4.9087505
-116.18166 1.9828992 4.9995031
-115.77109 1.9716098 4.9899597
-105.53857 1.8795192 5.0424442
-104.25821 1.8396599 4.8226852
-103.1853 1.9460788 4.8791847
-102.42326 1.9571007 5.0082312
-102.20441 1.9045956 5.0543699
-101.66267 1.8043723 4.8979664
-100.911 1.8101168 5.0335045
-100.23898 1.8960397 5.0746174
-99.912094 1.8646202 5.0643592
-99.238678 1.8851808 5.1564064
-21.374899 1.833634 5.094131
-20.5235 1.802507 5.0015721
-20.255472 1.8301874 5.038168
20.625582 1.8625603 4.9769254
-127.76018 2.3685668 4.9392891
-123.36272 2.2954111 5.1351624
-122.97841 2.275444 5.1058226
-122.60376 2.2399647 5.0346265
-122.23908 2.252368 4.8720737
-121.01077 2.1135604 4.9721766
-120.62816 2.0445139 4.8761015
-120.24249 2.1028526 4.9798818
-119.94835 2.1685104 5.0845613
-119.05988 2.1076651 4.8676553
-118.67809 2.1121931 4.8145351
-117.13875 2.0316515 5.1924915
-116.73193 2.0104408 5.1033344
-115.356 2.239109 5.0527515
-115.0097 2.1707971 5.0384784
-114.57803 2.2164824 5.0907955
-114.16987 2.2205849 5.0990987
-113.83481 2.2395043 5.0308228
-113.52056 2.2901645 5.1553345
-112.24189 2.3024375 5.131701
-110.59014 2.2382026 5.0305896
-110.12922 2.3107045 4.9397144
-109.56502 2.2442424 5.1999741
-108.60142 2.1448014 5.1437826
-108.11925 2.2289944 4.9495964
-107.99791 2.0402606 5.1092701
-107.36954 2.0349083 5.1075687
-107.04252 2.2334976 4.9975834
-106.58757 2.1295733 4.8948922
-106.0671 2.2246451 5.074194
-105.96227 2.110395 4.8430805
-105.40697 2.1742282 4.9245272
-104.03343 2.0371938 5.0039377
-103.71627 2.1099226 5.0834684
-103.57675 2.1573207 5.0594788
-102.47369 2.1412072 5.095161
-101.00066 2.3057258 5.0127773
-34.558392 2.2015975 5.082108
-34.203457 2.2427239 4.9829307
-33.895535 2.2733679 4.976119
-27.223978 2.1721146 4.8608747
-27.14776 2.3342407 4.8844633
-21.538448 2.3422575 4.9398508
-20.981394 2.264987 5.0256109
-20.482458 2.2594616 5.044384
-20.269518 2.0399246 5.1473827
-19.88504 2.1725862 4.8923798
-19.414648 2.2423365 5.1001072
-19.104734 2.3294117 4.9307194
20.030701 2.3170581 5.0977888
20.613358 2.2753243 5.0436616
20.844625 2.1061411 4.9610829
-130.79585 2.7020764 4.9819918
-130.30287 2.5742099 5.1305313
-129.3018 2.6543338 5.14784
-128.98434 2.6470284 5.0738239
-128.45798 2.4435248 4.8591156
-128.1703 2.4899654 4.9241686
-127.74978 2.4679704 5.0658541
-114.9933 2.5279727 4.9907579
-114.60051 2.547565 4.963779
-114.28329 2.5819051 4.9439902
-113.79916 2.4722333 5.1174765
-111.90704 2.6786475 5.1716509
-111.2854 2.6214631 4.889864
-110.81183 2.6265521 5.1852236
-110.37399 2.5970056 5.1060343
-109.36364 2.639852 5.0203834
-109.15215 2.5301504 5.0664692
-108.67644 2.7951474 5.14254
-107.39257 2.6940057 5.1041985
-106.63708 2.7432697 5.1812935
-106.22984 2.7926993 5.1797447
-104.18353 2.7772832 5.0574141
-103.59358 2.7234712 5.0179844
-103.12286 2.7590451 5.1033001
-102.68028 2.7252359 5.027607
-34.431492 2.5003614 5.0592117
-34.303802 2.5110979 5.040194
-28.18959 2.6549158 4.8106709
-27.431847 2.6493018 4.9335966
-27.089712 2.6382222 5.0586724
-21.482471 2.678942 4.8469896
-20.833733 2.7607269 4.9410315
-19.929243 2.7965875 5.1092358
-19.444193 2.4408917 5.1772423
-18.964998 2.4955065 4.8942728
20.337215 2.5975738 5.0840387
20.651257 2.7577434 4.9109383
20.861366 2.621876 4.8670435
-138.30875 3.1305828 5.0150084
-137.60504 3.1994987 5.1507978
-137.42094 3.0647292 4.9080734
-137.12683 3.0278959 5.0887585
-136.59338 3.1777277 4.854248
-136.11325 2.9728863 4.9984722
-134.02539 3.1841068 4.9463577
-133.98178 3.0292428 5.0810356
-132.97833 2.9703875 5.0052376
-132.62396 3.0281267 4.8940439
-132.3537 2.8699393 4.8860283
-130.83253 2.8072157 4.8366795
-130.02374 2.8103347 4.8641853
-128.97791 2.8297305 5.1227722
-111.92661 2.908603 5.1610508
-111.44301 2.9858952 5.1689634
-110.92731 2.9374616 5.1565657
-109.11506 2.9510145 5.0462933
-108.58282 2.9630899 4.9531031
-108.13686 2.8685334 4.9962306
-106.33432 2.8947997 5.0504169
-105.72475 2.8279991 5.1951408
-105.42117 2.8763378 5.1309643
-104.27616 2.8333137 4.8073368
-27.275045 2.827816 4.9007778
-26.961224 2.9035416 5.0351572
-22.236717 3.0297165 5.0233927
-21.818907 2.8255756 4.8010511
-20.861479 2.957696 5.0658774
-20.770994 3.1278548 4.9892039
-20.062416 2.9885201 5.0036602
-19.924929 3.1373715 4.8963079
20.596382 2.8611612 4.9462996
20.908829 3.0483599 4.9640555
-138.29358 3.2855678 4.8716893
-137.63329 3.5342202 5.0337172
-137.46887 3.3693697 4.9393172
-134.0318 3.2464967 4.8208332
-132.88042 3.2865229 4.9857006
-132.6382 3.4124076 5.1223536
-130.41026 3.5384474 4.9999752
-128.31332 3.3629677 4.9786658
-22.052954 3.2682066 5.0695515
-21.805101 3.3939269 5.0489535
-21.110138 3.3272054 4.81709
-20.49696 3.3073897 4.9252787
-20.362988 3.3326955 5.0006018
-19.831518 3.4509418 4.9780498
-19.557505 3.5369003 5.0668969
-137.58949 3.6854486 4.9114075
-132.8873 3.8844705 4.9930344
-132.66104 3.8591211 4.9346905
-21.792837 3.6892555 5.0425453
-21.032944 3.8326535 4.871347
-20.598152 3.7978141 5.0056844
-20.165972 3.7485464 4.9455314
-19.664932 3.6382563 5.0323753
-19.529161 3.6842754 4.9670539
16.150967 3.8317993 4.9476333
-142.64468 4.219945 4.8482108
-137.64734 4.1379228 4.9976139
-137.49152 4.117332 4.9350138
-22.485558 4.3164482 4.9229279
-21.836203 4.2926378 5.0029945
-21.213171 4.3086638 4.8451614
-21.110619 4.0993366 4.8291664
-20.502136 4.1860352 5.09939
-20.14809 4.2423968 5.1133423
-19.806122 4.1073103 5.0634246
-19.419989 4.1998878 4.9562922
15.953352 4.1155968 4.8673449
16.685873 4.0824642 5.1670609
-142.64697 4.4101567 4.8347883
-51.632145 4.7236137 5.199255
-50.897419 4.6778917 5.0627537
-21.847778 4.6469345 4.9239454
-21.218306 4.5860453 5.1389542
-20.951643 4.5165539 5.1747556
-20.639677 4.6719799 4.8708158
-20.236086 4.4987645 5.0041642
-19.739536 4.5651145 5.0392313
-19.297579 4.5587978 4.9761968
15.862488 4.7488785 4.8907485
16.231537 4.6465087 5.1109457
17.445869 4.5578742 5.0522733
-51.623665 4.9430609 5.0803843
-50.890835 4.8506184 5.1022358
-22.155676 4.8176241 4.8703899
-21.229948 4.9100561 4.901989
-20.94869 5.0447016 4.9525776
-20.778851 5.0083628 5.0026002
-20.267347 4.931375 5.1119776
-19.829475 4.84026 4.8813171
16.034803 4.8529444 5.0230093
17.122425 5.0763726 4.8072138
17.242426 5.1108246 5.0324407
-132.43675 5.5568147 4.9748478
-108.03999 5.2586222 5.1696758
-33.343925 5.3740726 4.9920101
-20.891476 5.3243384 4.9746623
-20.757643 5.5013475 5.1767006
-20.082169 5.2389693 5.1567707
22.047308 5.3255477 5.0289879
-137.60579 5.721158 5.1920242
-137.44775 5.6984024 4.9602046
-132.97572 5.9823098 5.1856861
-132.52892 5.7517104 5.0878644
-51.514023 5.6920161 5.0432863
-33.219742 5.6585274 5.1679411
-20.150225 5.6486988 5.0765123
15.677461 5.7869492 5.0373874
16.081978 5.6838694 4.8492432
19.543535 5.9439054 5.1269922
19.74588 5.8268733 5.1261954
-132.28119 6.3138824 5.1333075
-129.15546 6.3826227 5.1772404
16.373413 6.3403912 4.9165907
18.0238 6.3984127 4.9926534
18.971832 6.2459908 5.0898724
-137.61359 6.4074836 4.8551044
-137.457 6.5503316 5.030201
-132.48102 6.5152636 4.9495106
-132.18271 6.512835 5.0677662
-128.9167 6.5143676 4.9252305
-128.68901 6.5196776 4.921854
-128.30461 6.7875795 5.0441322
17.854128 6.4830036 5.0695629
18.214111 6.7577572 5.1366963
18.456209 6.7354746 4.8232269
-137.71936 6.9098368 4.802248
-128.48717 7.1019654 5.0192389
-128.37073 6.9146233 4.9920254
-111.82841 7.0314693 4.9110222
17.060772 6.9773293 4.9095688
17.700882 6.9830809 5.1203742
-128.9653 7.4727306 5.0013313
-128.65907 7.4396029 5.1289101
-128.37808 7.4708686 5.0670733
-112.0185 7.3852344 4.88694
-129.07133 7.925663 4.8231564
-128.48355 7.823668 5.0514717
-128.37837 7.7560391 5.0421896
-129.03104 8.3281994 4.8768148
-128.61211 8.5604839 4.931366
-128.13333 8.7420521 5.1474009
-117.91998 1.9953785 5.2199459
-116.34082 1.9736309 5.4929924
-115.93497 1.959445 5.4460192
-110.3919 1.9329298 5.3970184
-106.97598 1.9357885 5.522028
-106.45456 1.9398539 5.5026512
-106.29593 1.9423597 5.5303268
-105.75582 1.9208704 5.503912
-105.46228 1.8577291 5.40804
-105.05739 1.881794 5.4088249
-104.68866 1.8751302 5.574379
-104.38424 1.8501441 5.2988834
-103.43296 1.9345576 5.4481454
-102.8595 1.9586424 5.5941734
-102.61954 1.9236736 5.4315205
-102.18312 1.8734344 5.4007864
-101.8119 1.8692658 5.4325538
-101.42267 1.8803712 5.5425797
-101.15083 1.9736973 5.5896444
-100.56985 1.9069691 5.4381409
-99.742073 1.8296521 5.382472
-99.214615 1.8684372 5.5074577
-99.082031 1.8780355 5.5892696
-98.645607 1.8761503 5.3084426
-22.106153 1.8856027 5.295568
-21.915827 1.9371856 5.3205118
-21.132862 1.8082937 5.4093261
-20.607298 1.8561856 5.5552311
-124.07229 2.3148201 5.3039589
-123.71411 2.3065712 5.2259388
-123.41614 2.2386172 5.5268517
-121.7751 2.2493396 5.5901709
-121.29474 2.2282865 5.4446001
-120.93715 2.2109904 5.331789
-120.5661 2.1957641 5.2392035
-118.8386 2.1108904 5.5736084
-118.28616 2.046927 5.416398
-117.93245 2.0699172 5.3646011
-117.53793 2.0524731 5.2867308
-115.37587 2.0957882 5.2699814
-114.11196 2.1445878 5.3236699
-113.94789 2.1309667 5.3169332
-113.35735 2.1407371 5.3650365
-113.0164 2.2269027 5.4751883
-112.5557 2.2261987 5.4168735
-112.10478 2.1717548 5.3791065
-111.78499 2.1394725 5.3740816
-111.40499 2.1935611 5.3757539
-111.00974 2.2517843 5.4268022
-110.56277 2.1778948 5.3816509
-110.19627 2.17975 5.4279265
-109.85958 2.1313918 5.3348231
-109.36583 2.1078739 5.2958326
-108.81382 2.1675394 5.5326958
-107.91055 2.0445995 5.314146
-107.33288 2.2161891 5.2424717
-107.03779 2.0420854 5.5025711
-106.52609 2.0513263 5.3567791
-106.28503 2.3865666 5.2179222
-105.74664 2.164201 5.4571414
-104.58977 2.1690791 5.3834238
-103.81932 2.1320016 5.338201
-103.33037 2.0663309 5.20294
-102.98038 2.1359565 5.5244079
-102.69995 2.1143179 5.4991493
-102.15484 2.0575316 5.5055099
-101.4189 2.33146 5.3443756
-100.94353 2.0148828 5.5883179
-99.716331 2.3206773 5.3026295
-34.579376 2.2903683 5.2499361
-34.116474 2.2772443 5.2165818
-22.488243 2.3004007 5.4470305
-22.349129 2.3404586 5.4305139
-21.835482 2.1875463 5.418931
-21.291344 2.1356437 5.5240388
-21.106039 2.2241733 5.3541226
-20.452135 2.0456309 5.474143
-20.108994 2.0436478 5.2775345
-19.628151 2.11531 5.212019
-19.389948 2.320256 5.2690077
20.436079 2.3249433 5.4418559
-128.95984 2.5493565 5.5019302
-128.60246 2.5198245 5.2570863
-128.13046 2.5034692 5.3738327
-127.85419 2.5075808 5.3962235
-111.39163 2.4260638 5.2265091
-110.08634 2.5925417 5.2138081
-108.94512 2.6662645 5.267128
-108.71519 2.5444779 5.4737225
-107.45174 2.7609947 5.200573
-107.08607 2.4343266 5.246789
-106.50153 2.764298 5.2175579
-105.70982 2.7177989 5.3463449
-105.25327 2.6252482 5.2715588
-104.9294 2.6502736 5.309536
-104.47662 2.6904597 5.2784939
-104.03352 2.7104139 5.3720226
-103.85376 2.6986103 5.2575912
-103.09209 2.6027608 5.2994938
-102.61619 2.6507728 5.3558102
-101.7923 2.7306857 5.4024582
-101.49496 2.6723018 5.4305048
-101.08737 2.6269007 5.4859467
-100.75157 2.596379 5.5553894
-99.920685 2.7096846 5.5725994
-99.470779 2.5199003 5.4797668
-99.080605 2.6382744 5.5204434
-98.411972 2.5417891 5.5264187
-97.972977 2.5372849 5.5722466
-34.388206 2.4743612 5.2092018
-27.28227 2.6701508 5.230114
-22.374659 2.5476997 5.5013194
-21.722126 2.5550089 5.5177646
-21.327524 2.7344387 5.4452071
-21.133926 2.6104391 5.3707371
-20.613815 2.7447779 5.462801
-20.290827 2.6305101 5.459177
-19.894712 2.5886827 5.2455754
-19.391237 2.5679276 5.4920573
-14.646718 2.5695412 5.5774751
20.062376 2.6661229 5.2320328
20.519056 2.6205125 5.4842491
-137.69681 3.0430069 5.3092079
-136.68961 2.9826639 5.2981606
-136.38351 3.0091667 5.3951035
-133.40979 2.8904915 5.2884369
-132.85391 3.0065355 5.2044487
-128.1866 2.8370152 5.2143784
-108.88255 2.8015332 5.2764397
-108.57893 2.8995931 5.2335415
-106.07982 2.8408267 5.206665
-22.14082 3.1250625 5.3811989
-21.743954 3.1359606 5.4825859
-21.394043 3.1950264 5.4203348
-21.064171 3.0193036 5.4254127
-20.462784 2.8039737 5.2179222
-20.193117 2.9194543 5.416347
-19.679058 2.9429398 5.514926
-19.360374 2.8113899 5.5552359
-14.640722 3.1050749 5.5952239
20.23262 2.8695374 5.5605927
20.595261 3.0173352 5.4713287
-132.80383 3.5371799 5.3160753
-132.71544 3.3395302 5.2638297
-22.120016 3.4557354 5.395772
-21.860882 3.3766205 5.397706
-21.367483 3.3957086 5.3205819
-21.096384 3.4040229 5.4006171
-20.67153 3.4621279 5.3792801
-20.171473 3.325727 5.3150463
-19.771433 3.4878762 5.4015074
-19.482046 3.5151145 5.4436226
-14.607788 3.3497982 5.586978
-132.65414 3.8988998 5.2633371
-22.249382 3.839221 5.3901267
-21.417816 3.7833405 5.3832731
-21.173923 3.6832185 5.3002644
-20.498339 3.746737 5.4558282
-20.271332 3.7694111 5.3950868
-19.785513 3.8185642 5.4230242
-19.479176 3.8583066 5.3899622
-14.61017 3.7734921 5.5678477
16.304762 3.9441381 5.2890396
-132.884 4.1351194 5.3237667
-132.66455 4.1269746 5.2793031
-50.963165 4.3928137 5.4623222
-22.518045 4.3621464 5.3590884
-22.304289 4.1650419 5.4696546
-21.406567 4.2580085 5.3732338
-20.997477 4.1857376 5.2936907
-20.605482 4.2598052 5.2703457
-20.188873 4.2396884 5.3129621
-19.854031 4.2353134 5.3098335
16.279293 4.20753 5.4028397
16.957611 4.198905 5.3457108
-108.4888 4.6203156 5.5634484
-51.765839 4.6147084 5.3156662
-50.907394 4.5966868 5.4092479
-33.398438 4.7602959 5.4014168
-33.195248 4.7582169 5.4200706
-30.987694 4.6384439 5.417388
-22.468109 4.6012654 5.4669094
-22.279678 4.6309733 5.5304794
-21.239542 4.5345583 5.3996449
-20.919531 4.6201739 5.3834348
-20.497309 4.5164089 5.5909076
-20.261896 4.6055312 5.484673
-19.770655 4.4657035 5.3940277
-19.411371 4.6491075 5.2840271
16.268024 4.6714711 5.3012743
16.59066 4.5776701 5.4201498
16.998322 4.6507082 5.4142418
-108.44039 4.8264618 5.511858
-108.23016 5.1904955 5.2873783
-51.41935 4.9514685 5.2908688
-50.979698 4.9784784 5.3077946
-49.081295 4.9596972 5.3653998
-48.671341 5.0801597 5.5216446
-33.442635 5.1380053 5.2994909
-33.038006 4.9808288 5.3970475
-32.715607 4.9335294 5.3975363
-22.685076 4.9118757 5.4071064
-21.626209 4.8175268 5.374052
-21.501827 4.8369579 5.5081358
-21.00197 4.970273 5.3026876
-20.666359 4.9999461 5.524725
-20.200426 4.9493489 5.3762417
-19.673204 4.8162761 5.5825787
-19.343597 5.0264978 5.3761325
16.341845 4.9195962 5.419302
17.243317 5.1997371 5.2416401
-132.54564 5.3114996 5.4264736
-108.18835 5.3055234 5.2616744
-51.149612 5.2994866 5.5857258
-50.792885 5.2711668 5.3977547
-48.962139 5.3267856 5.4223366
-48.528526 5.2616978 5.4940624
-38.259674 5.5255013 5.5821114
-34.446877 5.3702354 5.5204754
-34.319176 5.3077755 5.4885292
-33.450367 5.5224667 5.4679399
-33.011379 5.4166923 5.3869381
-32.591919 5.2585173 5.3291683
-31.086086 5.4414773 5.3920403
-21.039083 5.4391427 5.4930983
-20.12114 5.2683921 5.4773736
-132.93486 5.8235602 5.392241
-132.46577 5.8789783 5.4907889
-132.29407 5.9827042 5.4019651
-108.85773 5.7659588 5.5787621
-108.6666 5.8618679 5.455204
-32.970695 5.7890663 5.3499928
19.517252 5.9286513 5.3093987
19.639278 5.7891154 5.3454704
21.763142 5.7664156 5.3798027
-133.11334 6.0021086 5.4593239
-132.49052 6.0643663 5.5417542
-108.68391 6.0918856 5.454854
19.079334 6.1481586 5.3972645
19.70965 6.0152369 5.3168383
-138.02806 6.4875212 5.2508111
-137.91814 6.5925097 5.2946205
-137.54486 6.4362426 5.2075815
-132.56407 6.5253134 5.4226961
-132.22069 6.4714537 5.3165622
-131.9917 6.664341 5.5256042
-129.38844 6.6270247 5.4271951
-128.99777 6.5717211 5.4102182
-128.65721 6.6362276 5.3334851
-108.86488 6.5363092 5.5407658
18.253561 6.6642027 5.4122629
18.766043 6.4369841 5.4823923
19.088779 6.465765 5.4440603
19.214832 6.6080184 5.3092651
-128.51491 7.0263386 5.3880911
-128.37199 6.83605 5.3799877
17.408701 6.9310226 5.230401
-128.84543 7.5442533 5.4408956
-128.55473 7.4927726 5.3793454
-128.88135 7.6182451 5.406353
-128.6089 7.845356 5.4460983
-128.97202 8.2430601 5.4257269
-128.58577 8.2937145 5.5424809
-128.55322 8.5805416 5.3582773
-128.24965 8.7520418 5.4832449
-128.69876 9.0898018 5.5623379
-128.2767 9.0215006 5.4712906
-128.7672 9.2160912 5.3673153
-128.17772 9.3354464 5.4340987
-128.19391 9.6462173 5.4081573
-115.71506 1.9967692 5.8370085
-110.58007 1.9362128 5.8146105
-110.00572 1.8867685 5.718214
-109.96555 1.9709091 5.7203732
-107.83311 1.9771471 5.8491197
-107.43985 1.9679019 5.8108635
-106.99721 1.9496818 5.8675308
-106.6763 1.9366984 5.914762
-106.22287 1.9413545 5.8313532
-105.79287 1.9182161 5.760613
-105.2494 1.9544384 5.6577272
-104.89938 1.8830614 5.7812414
-104.60512 1.8668841 5.7887716
-104.19463 1.8932265 5.7946873
-103.99338 1.9368737 5.7018147
-103.26408 1.9066381 5.8110199
-102.92847 1.8714741 5.8277764
-102.63706 1.9213616 5.7696452
-102.15773 1.8203788 5.6948671
-101.67619 1.9198483 5.7059278
-101.37354 1.8182433 5.7225161
-101.02515 1.8863139 5.6798363
-100.46687 1.9309286 5.7395382
-100.26845 1.9225204 5.8351493
-99.75222 1.923795 5.7439313
-99.381577 1.9444155 5.837491
-98.917625 1.8891332 5.7955313
-98.759613 1.8775964 5.6768885
-98.186607 1.8584234 5.8230767
-97.740028 1.8172643 5.8459702
-21.643192 1.9746528 5.8319216
-21.460073 1.8080742 5.8345313
-21.013159 1.8043323 5.8442349
-124.55698 2.2694931 5.907093
-124.2323 2.2591362 5.7826567
-123.78021 2.2447207 5.7265716
-122.98634 2.290122 5.8382931
-122.69862 2.2781601 5.7463899
-122.25867 2.2628109 5.6956606
-117.72993 2.0407643 5.869307
-117.43206 2.0601552 5.733253
-117.00478 2.0304518 5.7007523
-116.62255 2.0301969 5.69596
-116.28289 2.0172541 5.7412138
-115.7924 2.0586309 5.8715558
-115.36167 2.083607 5.8034821
-114.94661 2.0555141 5.6984992
-113.88599 2.0976486 5.6864834
-113.00407 2.0914271 5.7835741
-112.67606 2.0919759 5.8417363
-111.72826 2.1205699 5.8080344
-111.10409 2.1132224 5.9343596
-109.81008 2.0557766 5.7683907
-108.25312 2.246546 5.8870149
-105.42858 2.3718169 5.6109533
-105.01881 2.1175931 5.6634464
-102.06818 2.0579917 5.6395926
-101.74091 2.0692616 5.7458391
-101.10461 2.0542691 5.7986693
-100.44229 2.0096817 5.8768559
-100.3093 2.2227631 5.8283195
-99.837112 2.2418146 5.6685019
-98.75592 2.3432243 5.6391449
-97.62265 2.3857214 5.7484951
-93.905235 2.3092601 5.8861847
-93.428009 2.3887539 5.877821
-22.292624 2.3766422 5.9821577
-21.687084 2.1345587 5.7894211
-21.342415 2.1708419 5.848856
-20.918385 2.1124783 5.7731438
-20.692461 2.1547167 5.7500701
-20.075535 2.1666706 5.8849716
-19.881647 2.3347721 5.8147168
-129.29642 2.5634866 5.7773285
-128.5154 2.5353508 5.9625559
-128.16396 2.5148427 5.6067677
-108.66843 2.6205115 5.8515301
-108.28802 2.7476344 5.9992867
-100.53993 2.6007738 5.6637745
-98.035347 2.5320127 5.6236706
-97.975975 2.571696 5.6571007
-97.332062 2.4613678 5.7319956
-97.051605 2.5333552 5.6823034
-93.400856 2.4275846 5.808218
-22.168175 2.4879541 5.6913204
-21.63143 2.7281041 5.9511089
-21.308851 2.612689 5.6680202
-20.951141 2.4941196 5.7856989
-20.644876 2.5463409 5.7861471
-20.224751 2.6557772 5.8154469
-19.844746 2.6398463 5.8214855
-19.498425 2.6304855 5.6776776
-14.513727 2.5870357 5.798656
-14.371445 2.6071954 5.8980842
20.700436 2.6272669 5.6003714
-108.55661 2.9582124 5.9174109
-108.318 3.0795255 5.9402065
-21.700264 3.0776954 5.818759
-21.313694 3.0661039 5.8799424
-20.947487 3.0802054 5.7933874
-20.669851 2.8780031 5.7487521
-20.172491 3.0345562 5.8387637
-19.719719 2.9239118 5.8310127
-19.547087 2.9181013 5.792047
-14.829748 2.9090509 5.7793751
-14.51503 2.9840598 5.7757106
-14.373368 3.0225515 5.892633
20.152092 3.0283852 5.8792472
20.513905 2.8569613 5.6442614
-108.58511 3.4182832 5.9579439
-108.28851 3.3575485 5.963789
-37.267273 3.5421019 5.9805775
-22.217619 3.3235397 5.6906624
-21.901373 3.401397 5.8181548
-21.513865 3.3168659 5.6766024
-20.61689 3.5016248 5.8585806
-20.174751 3.3472028 5.874733
-19.52886 3.4941912 5.624579
-14.533056 3.3839896 5.7471571
-14.368494 3.3512437 5.8841958
-108.54549 3.8314958 5.9541721
-108.3487 3.9026 5.9323883
-37.245609 3.8805218 5.9238091
-31.447998 3.9323108 5.9296556
-30.958513 3.9321623 5.9138632
-30.792698 3.9257598 5.9921227
-22.156382 3.8409743 5.7670317
-21.852276 3.8122373 5.8086224
-21.218807 3.8975203 5.9788475
-21.130899 3.6331887 5.6721234
-20.550547 3.8342285 5.8722744
-20.17211 3.9369771 5.8375454
-19.887236 3.8491144 5.6660767
-14.519724 3.7639415 5.7493386
-14.38104 3.8791585 5.8597121
-108.56966 4.1236219 5.9168677
-108.37228 4.0339041 5.8771076
-50.895321 4.3825703 5.7968645
-37.272491 4.1328645 5.8061566
-37.112762 4.1942883 5.8315401
-34.047516 4.3206873 5.9586811
-33.730999 4.1773586 5.8992114
-33.417339 4.2359719 5.8939071
-31.429796 4.1637492 5.8288512
-31.040035 4.170567 5.8712945
-29.830204 4.3417339 5.891305
-28.896847 4.3608193 5.9864364
-22.503708 4.3048968 5.9806175
-22.173965 4.2910104 5.7350836
-21.796608 4.181004 5.8639092
-21.557125 4.2096081 5.8338304
-20.808445 4.1790304 5.9275723
-20.656506 4.2006598 5.9143491
-20.212015 4.1396065 5.7384157
-19.99852 4.1695046 5.9157124
-14.521037 4.1726093 5.6897006
-14.391733 4.1524878 5.7967796
16.211824 4.2603884 5.6894073
-108.57903 4.5993004 5.923142
-108.33316 4.608088 5.8664417
-50.956017 4.5733161 5.9330487
-48.331482 4.6774926 5.7651329
-37.712593 4.7909064 5.8544731
-34.524876 4.5825028 5.9048553
-34.287304 4.5603971 5.8581352
-33.347282 4.4796782 5.9676857
-31.711607 4.5187969 5.9400392
-31.466686 4.7217913 5.8612804
-31.089317 4.6550851 5.8040447
-30.5786 4.7026525 5.6006804
-29.802143 4.4870324 5.7573595
-29.589386 4.4422493 5.9490414
-28.95026 4.550365 5.9629478
-22.421816 4.6621017 5.9266152
-22.152197 4.4862509 5.8510456
-20.436573 4.4077673 5.6711464
-20.180584 4.5908813 5.6958442
-108.50561 5.0403881 5.9544802
-108.37202 5.0588722 5.8589792
-103.31594 5.0239687 5.997076
-50.887272 5.0600882 5.8414669
-48.496552 5.1878462 5.9550838
-48.13385 5.0903273 5.8390102
-47.192623 5.1851463 5.9765224
-41.309746 4.9799585 5.8878708
-41.045097 4.9094071 5.9105778
-40.598427 5.0371637 5.8857336
-40.365871 4.9600048 5.9178467
-39.100105 5.1391039 5.826726
-37.861126 5.0068531 5.9450684
-37.582298 4.8804603 5.9019413
-34.621273 5.0995111 5.8497005
-34.171616 4.9504194 5.8403063
-33.800968 5.10286 5.923759
-33.416397 4.9744587 5.6933122
-32.221245 5.1675491 5.7289886
-31.809608 5.158534 5.90206
-31.046381 4.8896694 5.7325096
-30.331352 5.1754103 5.845068
-22.682339 5.0612702 5.837925
-21.77676 5.0076056 5.6619577
-21.490829 4.974647 5.7888145
-21.080431 4.8193541 5.6626492
-20.651155 4.9585586 5.9060531
-20.108776 4.9522753 5.761179
-19.819901 4.9672489 5.6228466
22.408386 5.1742611 5.7638688
-108.56939 5.2622495 5.9267697
-108.34428 5.2844882 5.8636656
-103.20671 5.5547781 5.732481
-103.09634 5.2431746 5.9529486
-51.348412 5.4548383 5.817297
-51.149063 5.3578501 5.7661514
-50.626648 5.2791257 5.8233156
-48.440865 5.5793958 5.6829987
-47.929253 5.3099632 5.9486513
-41.277763 5.2264729 5.8707027
-41.179245 5.3978062 5.7979259
-40.408108 5.5783424 5.8020382
-39.393742 5.2888865 5.9427471
-38.201824 5.564002 5.7629528
-34.968384 5.4016743 5.8994803
-34.518883 5.378015 5.8729744
-34.175339 5.3993902 5.8862877
-33.489029 5.2465396 5.7829604
-31.770311 5.3667884 5.8944945
-31.464836 5.3804379 5.9712772
-30.7812 5.2166967 5.7340431
-29.048111 5.2350287 5.9643402
-20.418022 5.3523655 5.8345747
-20.236568 5.4456511 5.8271232
22.419333 5.4258542 5.6797743
-109.07302 5.8690782 5.7595482
-108.60831 5.796771 5.8326874
-108.17245 5.7490768 5.9790764
-103.39485 5.9122086 5.6708679
-48.65844 5.6827898 5.8842754
-48.20713 5.8851171 5.8060989
-34.887817 5.6013403 5.6636677
-34.565472 5.698772 5.6345491
-33.497616 5.8886919 5.7473602
19.339638 5.8756275 5.8592973
19.625298 5.9219704 5.6363459
21.745949 5.7450953 5.716238
19.076843 6.1907763 5.9028139
-132.5498 6.6239281 5.7432551
-129.23842 6.5774288 5.7787361
-129.00375 6.6124883 5.8302293
-128.73145 6.7950802 5.7236204
19.070456 6.5347047 5.7269535
-129.53766 7.1446934 5.7362976
-129.00117 7.010767 5.9035244
-128.59616 6.9912987 5.7721448
-128.67311 7.401854 5.8324466
-128.82532 7.9924908 5.7530918
-129.01457 8.0829468 5.6487379
-128.66151 8.2992945 5.7489357
-128.89609 8.5815954 5.9576797
-128.74832 8.6643715 5.7620602
-128.31612 8.4432306 5.867249
-128.89055 9.0458612 5.8191628
-128.59169 8.9824991 5.8151345
-128.26955 9.0406342 5.8067875
-128.44444 9.359972 5.830904
-128.19691 9.3593283 5.8741875
-128.28917 9.7641287 5.9210401
-128.36636 10.020578 5.7504978
-146.14662 11.504564 5.9951963
-146.64331 11.619074 5.900423
-116.89158 1.998817 6.2630997
-116.61689 1.9270897 6.2395287
-116.09528 1.9633369 6.0564022
-113.09776 1.9208945 6.3637657
-112.24952 1.9479469 6.297647
-111.76262 1.9567956 6.3538904
-111.38096 1.9700963 6.2956872
-111.12834 1.9273686 6.1088753
-110.68802 1.9507265 6.1298175
-110.25462 1.9721385 6.1741347
-109.75675 1.9757839 6.2720222
-109.53473 1.9497011 6.1223955
-109.06453 1.9634944 6.2002583
-108.5564 1.9686021 6.1993074
-108.159 1.9698272 6.1060028
-107.86776 1.9376695 6.0817223
-107.24685 1.9325672 6.1525192
-106.98925 1.9076751 6.0124645
-106.17029 1.8760195 6.2426643
-105.88593 1.8608072 6.0929508
-104.1622 1.8224497 6.152977
-103.79618 1.9340825 6.3086262
-103.42001 1.9051663 6.1929359
-100.14416 1.993608 6.161375
-98.956985 1.8805704 6.1728497
-98.515106 1.9385908 6.3932953
-98.308182 1.851476 6.3781567
-21.541931 1.8637464 6.1351643
-20.995018 1.8666832 6.1684446
-125.75189 2.2674496 6.3242283
-125.45483 2.2554529 6.2002449
-124.93628 2.2835391 6.065712
-123.82401 2.3051679 6.1164331
-119.22086 2.1193435 6.3084373
-118.96721 2.0822351 6.1389403
-118.45719 2.0820181 6.068099
-115.61897 2.0444489 6.1607342
-115.32252 2.0850635 6.3671036
-114.51436 2.106854 6.1327767
-113.99441 2.0935028 6.1655788
-113.47191 2.0799737 6.2084332
-113.01239 2.0224469 6.2198849
-112.63393 2.0875163 6.2247529
-112.30579 2.0636687 6.1856036
-111.76686 2.0416186 6.1693692
-111.44576 2.0487428 6.2239137
-110.98642 2.0119097 6.1156559
-110.4231 2.0116477 6.2336388
-109.99623 2.0830359 6.2130756
-109.44598 2.056742 6.1173615
-109.10459 2.0686541 6.1865554
-108.56761 2.2193432 6.0988116
-108.36019 2.2314942 6.046649
-107.31052 2.0141549 6.1103916
-103.70742 2.1664326 6.3014779
-103.55984 2.1357408 6.1768322
-100.12509 2.0603302 6.1993442
-98.543373 2.1672909 6.3342171
-97.725952 2.1737354 6.0829945
-97.576355 2.124104 6.0090637
-93.983986 2.3245392 6.3695469
-93.234589 2.0256834 6.2425194
-88.561691 2.3320873 6.2689395
-22.075476 2.0650187 6.0029926
-21.781744 2.1056879 6.0921016
-21.369873 2.1798348 6.2426491
-20.996038 2.1450403 6.2408056
-20.583128 2.1364164 6.158144
-20.204161 2.1711264 6.1607785
-19.715076 2.3597207 6.0810556
-129.46843 2.5879653 6.1122112
-128.52422 2.573348 6.3234158
-108.51342 2.5406582 6.0441532
-108.33929 2.5385406 6.0625353
-104.07385 2.5506711 6.1693611
-103.7122 2.6454833 6.2392292
-103.57879 2.5948577 6.1510057
-98.877129 2.6357782 6.3313274
-98.579346 2.6357944 6.2895927
-22.433056 2.596715 6.1992702
-22.172323 2.5947824 6.3365831
-21.827595 2.6435018 6.2277784
-21.445539 2.6026492 6.2126837
-21.004967 2.6398752 6.1531372
-20.572401 2.6065166 6.2388983
-20.15658 2.5490115 6.2382383
-19.949934 2.7646186 6.2323127
-108.46533 3.0348716 6.0337353
-108.34558 2.9935076 6.041584
-104.01201 3.1345921 6.2281628
-103.715 2.9780786 6.2467465
-103.58629 3.0540392 6.196455
-98.83725 3.0953112 6.3258705
-98.549843 2.962327 6.3539362
-22.127382 2.9857883 6.2041736
-21.793697 2.9129019 6.114193
-21.415663 3.0007041 6.0984225
-21.006008 3.1090198 6.0529528
-20.566418 2.8487949 6.0837955
-20.202999 2.9522438 6.2656794
-19.767372 2.9562156 6.2049909
-19.598019 2.9818811 6.1162071
20.408285 2.8643022 6.1210718
-108.46723 3.3901253 6.0243244
-108.35788 3.4405346 6.0158567
-103.69824 3.41429 6.2513642
-98.842857 3.4787316 6.2694397
-98.575203 3.5320344 6.331625
-37.642738 3.4609141 6.3883801
-37.338219 3.528965 6.3295956
-37.159992 3.2718663 6.393898
-22.12969 3.4282472 6.2296753
-21.774483 3.3524151 6.138649
-21.570492 3.4038973 6.0769472
-20.940668 3.4326153 6.1832924
-20.6171 3.4134483 6.2182212
-20.249508 3.3545811 6.1417718
-19.845928 3.5423069 6.2778149
-19.330503 3.349653 6.3762555
-19.192598 3.4721508 6.3978977
-14.673026 3.2899508 6.0066719
19.92252 3.562073 6.3796349
20.161608 3.4528308 6.1549149
20.772633 3.4478703 6.1058378
-108.46729 3.8225639 6.0231485
-108.34637 3.6435103 6.0542717
-98.851944 3.7092526 6.3940201
-98.549858 3.7634585 6.3078308
-37.721188 3.7883134 6.220788
-37.397419 3.8165989 6.2048888
-36.968678 3.9459696 6.3279791
-30.960949 3.9259448 6.1711106
-30.143444 3.8228712 6.3097248
-29.806906 3.8296416 6.2614737
-29.45999 3.8019457 6.2037544
-29.037451 3.8807461 6.2109666
-22.245159 3.8495269 6.3385544
-21.738453 3.7513053 6.2273207
-21.384878 3.7877846 6.3136182
-21.055851 3.7040431 6.1752591
-20.107784 3.7787318 6.0754218
-19.785763 3.7848449 6.2253113
20.367022 3.6638863 6.1404457
20.971153 3.8151557 6.2423668
-108.48811 4.136651 6.017828
-108.36362 4.0799503 6.0091066
-98.561607 4.2224994 6.3481503
-98.366852 4.2242746 6.390192
-38.279694 4.1986256 6.12078
-37.762432 4.0876179 6.266129
-37.298035 4.158679 6.2010841
-37.112549 4.152729 6.1522102
-34.430099 4.3821635 6.2227068
-34.100723 4.2054567 6.1126814
-33.746281 4.1409822 6.0631194
-31.333992 4.1477699 6.2186689
-30.991995 4.1154819 6.2526584
-30.114668 4.2063885 6.3045387
-29.773884 4.270957 6.2114873
-29.412712 4.2503972 6.23066
-28.994999 4.3121419 6.1990294
-22.404394 4.1407738 6.051981
-22.211006 4.2802758 6.1089454
-21.88209 4.2321258 6.1101637
-21.429733 4.0347404 6.2918396
-21.062433 4.1842694 6.3033652
-20.472717 4.2090378 6.2523098
-20.20961 4.2509632 6.173924
-19.975332 4.2575922 6.184546
20.92672 4.2049055 6.2144547
-108.50394 4.6624408 6.0273881
-108.39197 4.6839752 6.0193157
-99.190651 4.7950926 6.2395229
-98.526123 4.4433784 6.3115578
-98.343079 4.5652676 6.3462944
-50.895515 4.5719476 6.1023703
-50.777054 4.6711111 6.1306443
-40.693558 4.7968125 6.2517433
-40.390121 4.7927351 6.1371765
-38.152374 4.6114426 6.1973381
-37.21368 4.5033903 6.2342939
-37.086971 4.4165416 6.1122398
-34.596066 4.5146456 6.1083698
-34.217007 4.6391873 6.2325516
-33.776821 4.5454988 6.0762467
-33.248474 4.4562674 6.0840826
-32.006119 4.4360013 6.0381908
-31.69183 4.4224267 6.0390348
-31.453953 4.4826832 6.1391287
-30.923449 4.5492206 6.2872148
-30.677967 4.6372786 6.1779056
-30.211819 4.5247965 6.2618361
-29.723663 4.4874711 6.2411571
-29.382309 4.4828796 6.3087001
-29.017757 4.5175767 6.1281786
-28.771811 4.5584612 6.209969
-22.511072 4.5543604 6.0429201
-22.24749 4.6583529 6.1632533
-21.756092 4.6267915 6.1912031
-21.583797 4.4485402 6.3868065
-20.955185 4.6458206 6.1748199
-20.589426 4.561667 6.2180872
-20.117624 4.6276393 6.278625
20.486834 4.5328112 6.1695108
-108.57715 5.0140185 6.0216279
-108.36102 4.8407683 6.0308285
-103.37206 4.9855442 6.3210726
-103.17381 5.1696954 6.2238717
-99.630249 5.0278358 6.3167019
-99.400513 4.9871511 6.3802481
-98.586578 4.9257083 6.3993969
-98.349693 5.0128803 6.3546743
-50.808853 4.8397121 6.2394581
-48.413826 4.8389425 6.0641899
-48.097958 5.0700111 6.2504573
-47.277817 5.1319742 6.0093937
-41.374279 4.9427853 6.2046947
-41.089966 4.9373665 6.2819099
-40.114567 4.9870114 6.1284118
-39.81015 5.060113 6.1779509
-39.145565 4.9668965 6.0605769
-34.606419 4.9404907 6.0616932
-31.67621 5.0941839 6.0473938
-31.405609 4.9894648 6.2230458
-31.05681 4.963192 6.3367085
-29.666281 4.9195685 6.2424841
-29.423706 4.997179 6.3256726
-28.964809 4.9896288 6.1450849
-28.779314 4.8385057 6.3584051
-22.595995 4.9206676 6.0855765
-22.276396 4.9047747 6.1680689
-21.724609 5.094708 6.2911129
-21.566708 5.1897717 6.0356865
-20.912251 5.1327281 6.3511686
-20.621508 4.8703451 6.0456433
-19.883078 4.9556966 6.2211509
20.911037 5.0300713 6.2720513
-108.89213 5.4418631 6.0700626
-108.59601 5.3174901 6.0303593
-103.30844 5.4264398 6.3005133
-103.19626 5.5694218 6.3861771
-99.761215 5.4830279 6.3921013
-98.885803 5.3298016 6.3656578
-98.445831 5.5102901 6.3527431
-98.284737 5.4416566 6.2700219
-51.416496 5.5271034 6.0010033
-50.86824 5.3718557 6.1553345
-48.27795 5.2666335 6.2745352
-47.267708 5.4114847 6.1039009
-41.395546 5.5659642 6.3949547
-40.773827 5.591094 6.2780285
-38.400612 5.5729151 6.2050791
-34.900448 5.4979272 6.2325754
-34.431587 5.5590811 6.2564597
-31.791105 5.3477626 6.0674615
-31.483706 5.291256 6.0662522
-30.623283 5.2204661 6.1931725
-29.937878 5.2109523 6.2924614
-21.409363 5.263207 6.0229416
-20.963007 5.3348265 6.1668854
-20.730846 5.3937764 6.2504406
-20.36264 5.3596473 6.2838221
-108.96181 5.8412538 6.1410036
-108.68159 5.8160038 6.1907744
-108.27295 5.7949653 6.1931381
-107.99702 5.9072232 6.193882
-103.32975 5.7098026 6.3007727
-99.03978 5.6321588 6.3911915
-98.552719 5.6287527 6.3656216
-47.901211 5.7789993 6.326498
-41.156258 5.9748139 6.2850142
-39.422115 5.7292643 6.3214788
-38.828373 5.7947397 6.1734972
-38.770363 5.8860879 6.215847
-34.437397 5.7704973 6.2936087
-33.704376 5.7735586 6.0563736
-108.6309 6.3768549 6.3348608
-34.102547 6.0503225 6.3262262
-108.74834 6.7108774 6.2722664
-129.00925 7.0570078 6.1205068
-128.63606 6.977057 6.1825905
-128.87903 7.3312502 6.0568638
-128.58736 7.4304852 6.2233253
-128.91313 7.9881659 6.1309013
-128.85526 8.0167656 6.1514306
-128.69586 8.2329502 6.1979704
-128.93762 8.627635 6.1983147
-128.57014 8.5053225 6.1569343
-128.91861 8.8261089 6.2473154
-128.73651 9.1107082 6.3942833
-128.57944 9.2877007 6.3377452
-128.28091 9.3666191 6.121594
-128.43735 9.9581223 6.2509556
-128.37556 9.9662781 6.0765171
-145.76242 10.203041 6.3659563
-128.88571 10.232225 6.2462111
-128.78168 10.014621 6.393177
-128.22542 10.257738 6.171711
-129.77972 10.708821 6.2514
-128.62749 10.525117 6.3441811
-129.90411 10.849003 6.2665577
-156.09384 11.547466 6.2856026
-155.71051 11.420502 6.3107362
-146.53333 11.434015 6.3395615
-146.22333 11.376387 6.300806
-146.957 11.804802 6.274416
-146.70126 11.821989 6.1527882
-146.38484 11.697063 6.314003
-146.72328 12.114387 6.1743011
-116.97913 1.9804765 6.5705547
-116.27961 1.9663613 6.5643806
-113.38599 1.9358679 6.5477161
-112.60814 1.9507561 6.5828943
-112.13906 1.9450196 6.415411
-111.22061 1.9308 6.6553574
-110.90497 1.9362427 6.5930514
-110.47875 1.9285132 6.6499085
-110.13654 1.9446303 6.6223817
-109.84893 1.9177411 6.4554343
-109.39581 1.9290963 6.5505137
-108.98535 1.9489195 6.58956
-108.59555 1.9474161 6.6104679
-107.92822 1.9643245 6.4737434
-107.23235 1.8510809 6.7995567
-107.07356 1.8346968 6.6213179
-106.5908 1.8573489 6.5168557
-99.358406 1.900545 6.5283375
-99.013977 1.9486763 6.5100312
-98.617958 1.8949585 6.5400839
-98.123886 1.8015312 6.5250125
-78.566986 1.8862246 6.6411295
-78.122246 1.8011038 6.6481605
-127.77841 2.3687239 6.5845985
-126.86954 2.2940924 6.7365189
-126.16919 2.2985935 6.4903488
-125.67686 2.3425467 6.4292135
-120.21637 2.1656804 6.6439734
-119.84008 2.1508279 6.529644
-118.17069 2.0687349 6.7357473
-117.79105 2.0486016 6.5920105
-117.40483 2.0296464 6.4630175
-115.71448 2.10373 6.4348526
-115.48668 2.1205449 6.6750097
-114.89729 2.0982728 6.6280656
-114.43294 2.0818117 6.4957552
-114.05533 2.0852005 6.5926666
-113.68241 2.0855834 6.6737661
-113.23239 2.0342846 6.4309406
-112.86292 2.0266297 6.6212316
-112.45016 2.0063376 6.6143827
-108.40143 2.0187078 6.4179058
-103.67936 2.2701159 6.4476495
-98.959488 2.0965064 6.5461102
-98.652756 2.0773067 6.4991446
-94.099304 2.3532345 6.5780215
-93.686539 2.2702286 6.6652336
-93.58638 2.2436357 6.6460838
-89.084496 2.2790623 6.6977482
-88.654205 2.3768716 6.7893038
-21.275723 2.3165631 6.5859747
-21.122286 2.1701961 6.4988284
-129.78693 2.6192465 6.5918155
-127.80048 2.4546261 6.5710526
-98.822502 2.6146595 6.4187489
-98.655159 2.6410346 6.4636617
-93.714249 2.5581996 6.6686788
-93.571091 2.6365218 6.5852432
-88.648216 2.4961007 6.7735209
-22.476469 2.6393948 6.4965906
-22.114454 2.6251967 6.5478578
-21.784203 2.7098989 6.5431275
-21.403162 2.7032259 6.5587354
-21.024332 2.5832372 6.6351457
-20.534763 2.6824744 6.5376449
-20.233757 2.7443385 6.5008793
-103.64845 2.9409423 6.4102535
-98.854843 2.8680601 6.5315208
-98.643066 3.006552 6.4601374
-93.701042 3.0069857 6.6792331
-93.583527 3.0178537 6.6981983
-88.694931 3.1731193 6.748621
-37.543911 3.17523 6.611805
-22.129436 2.819365 6.6270361
-21.232916 3.1793785 6.5274849
-20.910643 3.0345359 6.717217
-20.551905 3.0532031 6.6212997
-20.193432 3.0033863 6.6081758
-19.882368 3.0619535 6.5508723
-19.390509 3.1327317 6.7210007
-98.816673 3.5908613 6.4227562
-98.622108 3.4267225 6.4462724
-89.248764 3.4554887 6.7155409
-89.060204 3.3319716 6.719861
-88.695938 3.2264991 6.7238417
-37.603226 3.3058646 6.5430946
-37.31572 3.405983 6.5854201
-37.133221 3.4020457 6.4969683
-22.367388 3.5930243 6.4686413
-21.245277 3.2141659 6.5267725
-21.156998 3.4010589 6.6938758
-20.657959 3.4354315 6.5229483
-20.102766 3.4062347 6.487278
-19.65917 3.3631437 6.6266041
-19.405771 3.3909342 6.5972939
-19.137249 3.4302545 6.5732508
19.974792 3.5240836 6.5252652
20.339163 3.3933256 6.7344117
20.594482 3.5742204 6.6813841
-98.907707 3.7928519 6.5284958
-98.641251 3.7325623 6.5048366
-89.206741 3.6781774 6.7418118
-89.01152 3.6348267 6.797225
-88.742004 3.8787525 6.7075315
-37.890694 3.8747187 6.5075083
-37.347473 3.7963815 6.6062503
-37.045158 3.6957994 6.5432873
-31.055761 3.9528697 6.5357246
-30.255594 3.9317448 6.4772644
-29.964382 3.8622756 6.4817371
-29.439749 3.8480563 6.5043516
-22.245789 3.6954288 6.4642057
-21.989515 3.6286438 6.4258003
-21.30687 3.8877385 6.4369493
-20.934055 3.8554966 6.6062632
-20.732506 3.7204714 6.5580053
-19.639923 3.9332747 6.7663288
20.239365 3.7964954 6.6209412
20.531555 3.8739696 6.7435827
-99.258339 4.2995191 6.4626503
-99.04155 4.217206 6.4958239
-98.495613 4.2294021 6.4335418
-98.393829 4.2818356 6.4442263
-93.668671 4.1959586 6.7269483
-93.558159 4.2205343 6.6298828
-88.91394 4.1794739 6.7503958
-88.760979 4.0404291 6.7010612
-38.208477 4.0701022 6.6277676
-37.770439 4.3282604 6.7186031
-37.357067 4.1515918 6.690908
-37.050575 4.1954956 6.51895
-35.033295 4.3989339 6.6995192
-31.216934 4.2975588 6.61339
-31.002325 4.2824516 6.5179625
-30.459274 4.1256795 6.6506009
-30.24564 4.1639037 6.5698843
-29.891235 4.208303 6.5009356
-29.307688 4.2239542 6.488852
-29.034988 4.3121324 6.5226803
-22.343597 4.0033917 6.4646053
-21.616035 4.3448534 6.4512539
-21.381588 4.0557375 6.4525785
-20.932104 4.0521197 6.6622558
-20.635452 4.106761 6.667232
-19.375832 4.034296 6.7852478
19.976179 4.0031595 6.7489128
20.756718 4.3486433 6.5547009
20.939644 4.2705307 6.7985992
-99.277298 4.4695435 6.4768982
-99.103127 4.518569 6.6446867
-98.525948 4.5840716 6.5375743
-98.374535 4.5279498 6.4605637
-93.666779 4.5893526 6.7200804
-89.284981 4.6194835 6.6172647
-89.05162 4.6773806 6.7293983
-88.789162 4.4827924 6.7758732
-47.461021 4.427062 6.6849971
-47.013844 4.5560808 6.4613008
-46.78067 4.5571561 6.5188999
-38.154804 4.6148815 6.7642031
-37.410374 4.4575114 6.499599
-35.600006 4.6099219 6.799901
-35.319084 4.5987015 6.687829
-35.124706 4.4975519 6.6450291
-34.713074 4.6396351 6.6689148
-34.344944 4.7023492 6.751914
-30.981348 4.5529842 6.7090201
-30.678528 4.4740963 6.5992212
-30.301947 4.5229249 6.7071967
-29.866634 4.5019445 6.6163187
-29.351131 4.5904284 6.5063591
-29.073744 4.4800262 6.4880271
-27.194403 4.6816468 6.7792511
-22.145296 4.6926208 6.5096183
-21.804878 4.5894642 6.5813932
-21.598412 4.5330858 6.50002
-21.100006 4.428442 6.4863415
-20.201084 4.5701361 6.4810801
20.805054 4.5672398 6.6563091
21.238224 4.6812091 6.4254694
-99.368614 4.9653821 6.4707537
-98.507607 4.9596405 6.5152049
-98.373138 4.9253316 6.4858561
-94.080391 5.0034542 6.6251183
-93.725822 4.9584136 6.6372495
-93.551659 4.9611263 6.6568427
-89.202866 5.1771626 6.6742592
-88.885704 5.0175748 6.6745129
-45.11224 4.992713 6.5570164
-44.484295 4.917264 6.7954044
-41.087334 4.9786754 6.7411289
-40.537479 4.9584517 6.6066461
-38.701012 5.0322785 6.597682
-34.648445 4.9883165 6.5623374
-34.237045 4.9952631 6.5583916
-31.846565 5.0119991 6.7386541
-31.473175 4.9289289 6.5727773
-31.006512 5.065063 6.5439858
-30.504597 4.9925532 6.7792816
-30.158436 5.026288 6.5887766
-29.845921 5.0594091 6.4435868
-29.236408 4.859158 6.5962753
-29.111238 5.1668634 6.726737
-28.562304 4.979424 6.5095396
-22.236748 4.8397913 6.665308
-21.913309 5.1820765 6.4334669
-20.243732 4.8406973 6.5532894
20.227005 4.9575634 6.6019449
20.781658 5.0338607 6.7575331
21.17959 4.9630575 6.7477531
-103.31158 5.3829594 6.4696331
-99.75843 5.4721074 6.5987034
-99.458519 5.3312454 6.5528321
-98.834198 5.4781666 6.5263968
-98.54789 5.3736806 6.6040573
-98.351631 5.484622 6.6305704
-93.665726 5.3015051 6.6923246
-93.53772 5.3180361 6.6728525
-88.987274 5.4523964 6.7138467
-41.515808 5.4649124 6.6028214
-40.931511 5.3837619 6.6112976
-40.616734 5.2936234 6.691401
-40.07093 5.3267798 6.5393982
-39.677704 5.3633804 6.6856937
-39.342686 5.3202167 6.5522242
-34.883961 5.269124 6.6511726
-34.72961 5.4779754 6.5704093
-34.255859 5.2145414 6.602005
-31.234905 5.3791656 6.5448723
-30.388233 5.4180384 6.5546913
-28.433598 5.2380857 6.515883
-20.641113 5.332232 6.6253099
-103.32251 5.867837 6.4704237
-99.739075 5.6051373 6.4843235
-98.972206 5.8289456 6.4798908
-98.25573 5.7692165 6.6481829
-93.769669 5.6033649 6.6501331
-39.809525 5.7740221 6.5104027
-35.00967 5.7502251 6.6634154
-34.672203 5.7675953 6.5317531
-34.310638 5.7583666 6.4266977
-33.808422 5.8101091 6.4146585
-28.92437 5.8820133 6.4999361
-20.235868 5.6152487 6.6539974
-98.455444 6.1135902 6.7966557
-98.09166 6.1289506 6.7354336
-141.07077 6.9627185 6.729959
-129.43828 7.0831771 6.5715775
-128.89069 7.0155959 6.6131277
-141.11536 7.4286728 6.6310754
-128.81554 7.3798485 6.4247284
-128.60994 7.3364983 6.4166565
-129.07402 7.8138981 6.4660435
-128.74228 7.6607943 6.6823573
-128.69202 8.2018528 6.6400323
-128.93826 8.5664902 6.6195421
-129.83966 9.1782856 6.5152931
-129.3349 9.0410004 6.6464548
-128.93521 9.0402756 6.5650663
-128.73972 9.1623936 6.5167923
-129.86615 9.3024349 6.7955437
-129.25418 9.3841629 6.6075211
-128.85873 9.3136225 6.6170382
